ply
format ascii 1.0
comment Generated by the CGAL library
element vertex 1156
property double x
property double y
property double z
property double nx
property double ny
property double nz
property uchar red
property uchar green
property uchar blue
end_header
64.5155 57.4035 -0.683096 -0.0216281 0 0 0 
63.357 57.2935 -0.683096 -0.0216281 0 0 0 
64.5115 60.766 -0.683096 -0.0216278 0 0 0 
65.1381 60.215 -0.683096 -0.0216278 0 0 0 
65.5987 60.3185 -0.744941 -0.0216278 0 0 0 
66.0059 57.5425 -0.744941 -0.0216278 0 0 0 
65.3076 61.2528 -0.744941 -0.0216278 0 0 0 
65.5536 62.3669 -0.744941 -0.0216279 0 0 0 
66.744 58.9405 -0.744941 -0.0216279 0 0 0 
68.5968 57.7526 -0.800956 -0.0216279 0 0 0 
68.189 57.0285 -0.800956 -0.0216279 0 0 0 
69.0417 57.5725 -0.800956 -0.0216279 0 0 0 
69.1381 60.0817 -0.800956 -0.0216278 0 0 0 
68.9053 58.5799 -0.800956 -0.0216278 0 0 0 
69.751 58.2267 -0.850703 -0.0216278 0 0 0 
69.5658 60.2654 -0.850703 -0.0216278 0 0 0 
69.5272 57.0772 -0.850703 -0.0216278 0 0 0 
70.8937 61.8954 -0.850703 -0.0216279 0 0 0 
70.7629 61.3013 -0.850703 -0.0216279 0 0 0 
71.9672 57.7312 -0.893791 -0.0216279 0 0 0 
71.2073 61.4742 -0.893791 -0.0216279 0 0 0 
72.1493 57.8977 -0.893791 -0.0216279 0 0 0 
72.1577 62.4652 -0.893791 -0.021628 0 0 0 
72.3152 57.9969 -0.893791 -0.021628 0 0 0 
73.371 57.9406 -0.929884 -0.021628 0 0 0 
72.7317 59.4941 -0.929884 -0.021628 0 0 0 
72.8693 58.6525 -0.929884 -0.021628 0 0 0 
73.6197 61.9334 -0.929884 -0.0216275 0 0 0 
73.2178 60.3658 -0.929884 -0.0216275 0 0 0 
74.1182 58.7926 -0.9587 -0.0216275 0 0 0 
73.7951 57.604 -0.9587 -0.0216275 0 0 0 
73.7718 59.0449 -0.9587 -0.0216275 0 0 0 
73.8036 61.8764 -0.9587 -0.0216276 0 0 0 
74.0826 61.0209 -0.9587 -0.0216276 0 0 0 
74.81 59.1365 -0.980013 -0.0216276 0 0 0 
74.9958 57.6008 -0.980013 -0.0216276 0 0 0 
75.1756 57.284 -0.980013 -0.0216276 0 0 0 
74.8041 62.3103 -0.980013 -0.0216276 0 0 0 
75.0331 61.8686 -0.980013 -0.0216276 0 0 0 
75.3931 59.4081 -0.993655 -0.0216276 0 0 0 
75.3214 60.3695 -0.993655 -0.0216276 0 0 0 
75.2994 59.8312 -0.993655 -0.0216276 0 0 0 
75.4331 61.4971 -0.993656 -0.021628 0 0 0 
75.3615 62.14 -0.993656 -0.021628 0 0 0 
75.6705 58.3647 -0.999521 -0.021628 0 0 0 
75.6241 59.1353 -0.999521 -0.021628 0 0 0 
75.6614 58.1192 -0.999521 -0.021628 0 0 0 
75.6286 61.0763 -0.999521 -0.021628 0 0 0 
75.6492 60.2201 -0.999521 -0.021628 0 0 0 
75.5646 59.9299 -0.997565 -0.021628 0 0 0 
75.6028 59.5168 -0.997565 -0.021628 0 0 0 
75.5738 59.1279 -0.997565 -0.021628 0 0 0 
75.5418 61.8076 -0.997565 -0.0216279 0 0 0 
75.4892 59.4153 -0.997565 -0.0216279 0 0 0 
75.2162 58.0217 -0.987801 -0.0216279 0 0 0 
75.3372 59.3144 -0.987801 -0.0216279 0 0 0 
75.1546 57.3113 -0.987801 -0.0216279 0 0 0 
75.2316 61.939 -0.987801 -0.021628 0 0 0 
75.0466 62.0155 -0.987801 -0.021628 0 0 0 
74.7191 60.306 -0.970306 -0.021628 0 0 0 
74.7765 57.5336 -0.970306 -0.021628 0 0 0 
74.8465 61.9636 -0.970306 -0.021628 0 0 0 
74.7446 61.9745 -0.970306 -0.0216278 0 0 0 
74.7485 61.8479 -0.970306 -0.0216278 0 0 0 
74.0818 58.7716 -0.945218 -0.0216278 0 0 0 
74.0275 59.1475 -0.945218 -0.0216278 0 0 0 
73.9603 60.8994 -0.945218 -0.0216278 0 0 0 
73.8098 61.6465 -0.945218 -0.021628 0 0 0 
73.5814 62.5745 -0.945218 -0.021628 0 0 0 
72.8441 57.7639 -0.912731 -0.021628 0 0 0 
72.6934 59.7597 -0.912731 -0.021628 0 0 0 
72.7663 60.7618 -0.912731 -0.021628 0 0 0 
72.8078 61.8682 -0.912731 -0.021628 0 0 0 
71.872 61.0271 -0.912731 -0.021628 0 0 0 
71.4376 59.7493 -0.873101 -0.021628 0 0 0 
71.6686 58.4906 -0.873101 -0.021628 0 0 0 
71.4394 58.917 -0.873101 -0.021628 0 0 0 
70.3423 59.2395 -0.873101 -0.0216282 0 0 0 
71.5832 62.3578 -0.873101 -0.0216282 0 0 0 
69.8279 58.1479 -0.826638 -0.0216282 0 0 0 
68.985 57.5729 -0.826638 -0.0216282 0 0 0 
69.9611 61.3678 -0.826638 -0.0216282 0 0 0 
69.4252 61.9542 -0.826639 -0.021628 0 0 0 
69.6211 62.4003 -0.826639 -0.021628 0 0 0 
67.452 58.625 -0.773706 -0.021628 0 0 0 
68.3838 57.5366 -0.773706 -0.021628 0 0 0 
66.842 57.3617 -0.773706 -0.021628 0 0 0 
66.9965 59.1721 -0.773706 -0.0216279 0 0 0 
66.7663 60.4533 -0.773706 -0.0216279 0 0 0 
64.7965 56.9538 -0.714718 -0.0216279 0 0 0 
64.5568 57.8684 -0.714718 -0.0216279 0 0 0 
65.9869 56.8798 -0.714718 -0.0216279 0 0 0 
64.7447 59.1368 -0.714718 -0.0216279 0 0 0 
64.5382 60.1547 -0.714718 -0.0216279 0 0 0 
64.8576 62.2921 -0.714718 -0.0216279 0 0 0 
63.8117 57.8578 -0.650136 -0.021628 0 0 0 
64.0086 59.2357 -0.650136 -0.021628 0 0 0 
62.0571 59.7051 -0.650137 -0.0216278 0 0 0 
61.942 60.5356 -0.650137 -0.0216278 0 0 0 
61.6937 61.2933 -0.650137 -0.0216278 0 0 0 
61.6777 57.1344 -0.580467 -0.0216278 0 0 0 
61.1116 58.5053 -0.580467 -0.0216278 0 0 0 
59.4531 62.4372 -0.580467 -0.0216279 0 0 0 
59.3077 59.0286 -0.580467 -0.0216279 0 0 0 
59.3648 59.0919 -0.580467 -0.0216279 0 0 0 
57.9078 58.4021 -0.506255 -0.0216279 0 0 0 
58.542 61.701 -0.506255 -0.0216279 0 0 0 
57.2377 60.0017 -0.506254 -0.0216281 0 0 0 
56.5964 62.6696 -0.506254 -0.0216281 0 0 0 
56.8857 61.8968 -0.506254 -0.0216281 0 0 0 
54.3847 58.7513 -0.428079 -0.0216281 0 0 0 
54.4687 57.6364 -0.428079 -0.0216281 0 0 0 
53.6002 61.4836 -0.42808 -0.0216277 0 0 0 
55.7833 62.7672 -0.42808 -0.0216277 0 0 0 
53.9458 61.0847 -0.42808 -0.0216277 0 0 0 
50.9412 56.9251 -0.346556 -0.0216277 0 0 0 
50.8168 56.9412 -0.346556 -0.0216277 0 0 0 
50.8178 60.445 -0.346555 -0.0216281 0 0 0 
50.6097 57.9566 -0.346555 -0.0216281 0 0 0 
50.4457 61.3033 -0.346555 -0.0216281 0 0 0 
50.0634 61.9151 -0.262317 -0.0216281 0 0 0 
48.5502 57.9239 -0.262317 -0.0216281 0 0 0 
47.5894 62.4525 -0.262318 -0.0216278 0 0 0 
48.5828 62.6116 -0.262318 -0.0216278 0 0 0 
47.9385 60.0445 -0.262318 -0.0216278 0 0 0 
46.5574 60.7634 -0.176028 -0.0216278 0 0 0 
46.5058 58.7893 -0.176028 -0.0216278 0 0 0 
46.3902 62.7186 -0.176028 -0.0216277 0 0 0 
44.3889 59.2058 -0.176028 -0.0216277 0 0 0 
44.0429 59.1689 -0.176028 -0.0216277 0 0 0 
43.4135 61.7534 -0.0883598 -0.0216277 0 0 0 
43.263 60.5192 -0.0883598 -0.0216277 0 0 0 
40.9847 59.6631 -0.0883583 -0.0216285 0 0 0 
42.9479 61.6753 -0.0883583 -0.0216285 0 0 0 
41.4002 58.9871 -0.0883583 -0.0216285 0 0 0 
40.1945 60.1976 0 -0.0216285 0 0 0 
40.3404 58.2682 0 -0.0216285 0 0 0 
38.4979 59.5944 0 -0.0216285 0 0 0 
38.2173 60.0658 0 -0.0216285 0 0 0 
37.8192 62.5304 0 -0.0216285 0 0 0 
35.0218 57.361 0.0883598 -0.0216285 0 0 0 
37.3188 60.2844 0.0883598 -0.0216285 0 0 0 
35.7585 61.4183 0.0883583 -0.0216277 0 0 0 
35.4973 60.2568 0.0883583 -0.0216277 0 0 0 
35.6184 59.8245 0.0883583 -0.0216277 0 0 0 
33.1662 60.7504 0.176028 -0.0216277 0 0 0 
33.5394 61.0356 0.176028 -0.0216277 0 0 0 
31.7637 62.6869 0.176028 -0.0216278 0 0 0 
31.2567 59.7604 0.176028 -0.0216278 0 0 0 
31.1625 61.4674 0.176028 -0.0216278 0 0 0 
30.6 57.5969 0.262317 -0.0216278 0 0 0 
28.7725 57.2762 0.262317 -0.0216278 0 0 0 
28.7507 59.9226 0.262318 -0.0216281 0 0 0 
28.592 61.6215 0.262318 -0.0216281 0 0 0 
28.8666 62.1502 0.262318 -0.0216281 0 0 0 
27.4426 60.8547 0.346556 -0.0216281 0 0 0 
26.5226 58.5984 0.346556 -0.0216281 0 0 0 
25.0702 60.3939 0.346555 -0.0216277 0 0 0 
26.3451 60.8317 0.346555 -0.0216277 0 0 0 
25.8625 60.9242 0.346555 -0.0216277 0 0 0 
23.7797 56.924 0.428079 -0.0216277 0 0 0 
23.9807 59.2202 0.428079 -0.0216277 0 0 0 
22.9896 60.1272 0.42808 -0.0216281 0 0 0 
23.4522 62.8448 0.42808 -0.0216281 0 0 0 
23.9667 62.2383 0.42808 -0.0216281 0 0 0 
21.9574 60.136 0.506255 -0.0216281 0 0 0 
21.7348 56.9296 0.506255 -0.0216281 0 0 0 
19.7894 62.7028 0.506254 -0.0216279 0 0 0 
19.5853 62.2227 0.506254 -0.0216279 0 0 0 
19.9021 61.9759 0.506254 -0.0216279 0 0 0 
19.0666 61.2621 0.580467 -0.0216279 0 0 0 
18.1621 58.9919 0.580467 -0.0216279 0 0 0 
17.1895 58.9896 0.580467 -0.0216278 0 0 0 
16.7605 59.6777 0.580467 -0.0216278 0 0 0 
17.445 59.2274 0.580467 -0.0216278 0 0 0 
15.7616 57.341 0.650136 -0.0216278 0 0 0 
15.4688 60.064 0.650136 -0.0216278 0 0 0 
14.5831 60.1448 0.650137 -0.021628 0 0 0 
14.3485 62.5243 0.650137 -0.021628 0 0 0 
15.6525 60.9698 0.650137 -0.021628 0 0 0 
13.9604 61.0854 0.714718 -0.0216279 0 0 0 
13.1072 58.3795 0.714718 -0.0216279 0 0 0 
12.462 60.1803 0.714718 -0.0216279 0 0 0 
11.9411 61.4933 0.714718 -0.0216279 0 0 0 
13.4135 62.7631 0.714718 -0.0216279 0 0 0 
11.7917 60.2364 0.773706 -0.0216279 0 0 0 
11.7584 58.0561 0.773706 -0.0216279 0 0 0 
9.98116 59.8331 0.773706 -0.021628 0 0 0 
10.8957 60.0461 0.773706 -0.021628 0 0 0 
9.98568 57.5868 0.773706 -0.021628 0 0 0 
9.01424 59.8913 0.826638 -0.021628 0 0 0 
9.16976 60.063 0.826638 -0.021628 0 0 0 
8.58357 59.0675 0.826639 -0.0216282 0 0 0 
8.43414 60.8765 0.826639 -0.0216282 0 0 0 
9.15899 61.9294 0.826639 -0.0216282 0 0 0 
7.98379 60.1496 0.873101 -0.0216282 0 0 0 
7.20132 59.5246 0.873101 -0.0216282 0 0 0 
7.6596 56.9249 0.873101 -0.0216282 0 0 0 
7.19842 62.4556 0.873101 -0.021628 0 0 0 
7.07946 60.1938 0.873101 -0.021628 0 0 0 
5.17159 57.2888 0.912731 -0.021628 0 0 0 
5.83606 58.6305 0.912731 -0.021628 0 0 0 
5.4846 57.4057 0.912731 -0.021628 0 0 0 
5.55451 59.851 0.912731 -0.021628 0 0 0 
5.15459 58.1556 0.912731 -0.021628 0 0 0 
5.01011 60.9333 0.945218 -0.021628 0 0 0 
4.93971 59.2166 0.945218 -0.021628 0 0 0 
4.73041 60.4394 0.945218 -0.021628 0 0 0 
4.36132 59.9527 0.945218 -0.0216278 0 0 0 
4.84124 61.3025 0.945218 -0.0216278 0 0 0 
3.82998 58.1195 0.970306 -0.0216278 0 0 0 
4.04582 60.2832 0.970306 -0.0216278 0 0 0 
3.95696 61.4742 0.970306 -0.0216278 0 0 0 
3.3198 59.6528 0.970306 -0.021628 0 0 0 
3.39782 58.1815 0.970306 -0.021628 0 0 0 
3.12785 58.9524 0.987801 -0.021628 0 0 0 
3.20787 59.3835 0.987801 -0.021628 0 0 0 
3.17158 59.5311 0.987801 -0.021628 0 0 0 
2.82537 60.17 0.987801 -0.0216279 0 0 0 
3.22175 62.3254 0.987801 -0.0216279 0 0 0 
2.74232 58.2469 0.997565 -0.0216279 0 0 0 
2.65558 57.1281 0.997565 -0.0216279 0 0 0 
2.79699 60.365 0.997565 -0.0216279 0 0 0 
2.71723 62.0276 0.997565 -0.021628 0 0 0 
2.70286 61.6999 0.997565 -0.021628 0 0 0 
2.58474 58.5015 0.999521 -0.021628 0 0 0 
2.55982 58.2779 0.999521 -0.021628 0 0 0 
2.52141 56.8654 0.999521 -0.021628 0 0 0 
2.60927 58.1962 0.999521 -0.021628 0 0 0 
2.69396 62.148 0.999521 -0.021628 0 0 0 
2.65649 58.4696 0.993655 -0.021628 0 0 0 
2.85246 57.4649 0.993655 -0.021628 0 0 0 
2.84261 57.4468 0.993655 -0.021628 0 0 0 
2.80492 61.0569 0.993656 -0.0216276 0 0 0 
2.88882 62.2619 0.993656 -0.0216276 0 0 0 
3.1205 60.6875 0.980013 -0.0216276 0 0 0 
3.49656 57.5476 0.980013 -0.0216276 0 0 0 
3.48813 57.3974 0.980013 -0.0216276 0 0 0 
3.31722 60.9162 0.980013 -0.0216276 0 0 0 
3.50174 61.5392 0.980013 -0.0216276 0 0 0 
3.91852 58.2627 0.9587 -0.0216276 0 0 0 
3.96456 59.2057 0.9587 -0.0216276 0 0 0 
4.07149 58.2224 0.9587 -0.0216276 0 0 0 
4.07219 61.4802 0.9587 -0.0216275 0 0 0 
4.39147 60.1182 0.9587 -0.0216275 0 0 0 
4.64769 62.1047 0.929884 -0.0216275 0 0 0 
5.30705 58.3304 0.929884 -0.0216275 0 0 0 
5.25935 58.3795 0.929884 -0.0216275 0 0 0 
5.12981 62.8213 0.929884 -0.021628 0 0 0 
5.3936 61.3743 0.929884 -0.021628 0 0 0 
6.41421 58.0529 0.893791 -0.021628 0 0 0 
6.79123 57.0062 0.893791 -0.021628 0 0 0 
6.19865 60.6535 0.893791 -0.021628 0 0 0 
6.5889 60.0274 0.893791 -0.0216279 0 0 0 
6.44387 62.6678 0.893791 -0.0216279 0 0 0 
7.5983 59.1578 0.850703 -0.0216279 0 0 0 
7.85465 58.5479 0.850703 -0.0216279 0 0 0 
7.74999 57.0958 0.850703 -0.0216279 0 0 0 
8.69671 62.6336 0.850703 -0.0216278 0 0 0 
8.78419 59.2162 0.850703 -0.0216278 0 0 0 
9.24898 61.1354 0.800956 -0.0216278 0 0 0 
9.46502 57.9196 0.800956 -0.0216278 0 0 0 
9.17567 58.6293 0.800956 -0.0216278 0 0 0 
9.73344 61.144 0.800956 -0.0216279 0 0 0 
10.4195 59.3499 0.800956 -0.0216279 0 0 0 
12.1671 58.374 0.744941 -0.0216279 0 0 0 
11.7507 59.9224 0.744941 -0.0216279 0 0 0 
12.1602 58.4884 0.744941 -0.0216279 0 0 0 
12.0272 59.8968 0.744941 -0.0216278 0 0 0 
11.4995 62.5633 0.744941 -0.0216278 0 0 0 
14.9432 57.4774 0.683096 -0.0216278 0 0 0 
13.8417 59.5155 0.683096 -0.0216278 0 0 0 
13.1538 59.7332 0.683096 -0.0216278 0 0 0 
15.2748 61.4462 0.683096 -0.0216281 0 0 0 
15.3897 62.7069 0.683096 -0.0216281 0 0 0 
15.3859 59.8776 0.615905 -0.0216281 0 0 0 
15.5098 62.1128 0.615905 -0.0216281 0 0 0 
15.9532 57.5874 0.615905 -0.0216281 0 0 0 
17.8668 62.5476 0.615905 -0.0216279 0 0 0 
17.3154 58.3248 0.615905 -0.0216279 0 0 0 
18.9844 60.0327 0.543893 -0.0216279 0 0 0 
18.7652 58.6262 0.543893 -0.0216279 0 0 0 
19.844 58.0464 0.543893 -0.0216279 0 0 0 
19.6083 60.9195 0.543893 -0.0216276 0 0 0 
19.1524 60.3964 0.543893 -0.0216276 0 0 0 
21.6728 59.3554 0.467625 -0.0216276 0 0 0 
22.1962 57.4464 0.467625 -0.0216276 0 0 0 
20.6187 58.3186 0.467625 -0.0216276 0 0 0 
21.3313 61.6015 0.467624 -0.0216281 0 0 0 
21.2238 62.1902 0.467624 -0.0216281 0 0 0 
25.8034 57.9474 0.387697 -0.0216281 0 0 0 
23.9607 56.9037 0.387697 -0.0216281 0 0 0 
25.1883 57.5214 0.387697 -0.0216281 0 0 0 
25.8785 62.5972 0.387697 -0.0216283 0 0 0 
25.1074 60.9037 0.387697 -0.0216283 0 0 0 
26.1614 62.8307 0.387697 -0.0216283 0 0 0 
27.6258 57.435 0.304734 -0.0216283 0 0 0 
28.7824 57.5646 0.304734 -0.0216283 0 0 0 
29.4171 57.6078 0.304735 -0.0216278 0 0 0 
28.5059 62.7586 0.304735 -0.0216278 0 0 0 
28.3118 61.9251 0.304735 -0.0216278 0 0 0 
29.6306 62.0968 0.219388 -0.0216278 0 0 0 
29.9264 58.482 0.219388 -0.0216278 0 0 0 
31.3943 61.461 0.219387 -0.0216281 0 0 0 
29.6231 62.8928 0.219387 -0.0216281 0 0 0 
31.0303 62.2492 0.219387 -0.0216281 0 0 0 
33.1965 58.2016 0.132322 -0.0216281 0 0 0 
33.3739 61.2855 0.132322 -0.0216281 0 0 0 
35.0414 62.5776 0.132323 -0.0216276 0 0 0 
35.7703 62.6754 0.132323 -0.0216276 0 0 0 
35.5877 59.8635 0.132323 -0.0216276 0 0 0 
37.0523 58.9848 0.0442236 -0.0216276 0 0 0 
38.4102 57.6963 0.0442236 -0.0216276 0 0 0 
37.1681 62.5436 0.0442224 -0.0216282 0 0 0 
38.2602 62.0615 0.0442224 -0.0216282 0 0 0 
38.0021 59.2934 0.0442224 -0.0216282 0 0 0 
40.3596 58.2481 -0.0442236 -0.0216282 0 0 0 
40.358 57.0478 -0.0442236 -0.0216282 0 0 0 
41.584 60.4905 -0.0442224 -0.0216276 0 0 0 
40.8777 59.7199 -0.0442224 -0.0216276 0 0 0 
39.203 62.8472 -0.0442224 -0.0216276 0 0 0 
44.0649 63.9168 -0.132094 -0.0626883 0 0 0 
43.7746 63.0589 -0.132094 -0.0626883 0 0 0 
43.1004 68.5003 -0.132094 -0.0626881 0 0 0 
43.9761 67.1323 -0.132094 -0.0626881 0 0 0 
44.1569 67.8529 -0.132094 -0.0626881 0 0 0 
47.6507 63.0554 -0.219007 -0.0626881 0 0 0 
45.762 66.1423 -0.219007 -0.0626881 0 0 0 
47.8946 67.0191 -0.219007 -0.0626882 0 0 0 
48.0671 68.7918 -0.219007 -0.0626882 0 0 0 
46.7816 67.1384 -0.219007 -0.0626882 0 0 0 
49.9003 63.8087 -0.304206 -0.0626882 0 0 0 
50.4132 63.1802 -0.304206 -0.0626882 0 0 0 
50.5666 66.3247 -0.304206 -0.0626881 0 0 0 
49.9669 67.5434 -0.304206 -0.0626881 0 0 0 
51.3301 68.3679 -0.304206 -0.0626881 0 0 0 
52.1617 66.6959 -0.387025 -0.0626881 0 0 0 
53.5392 64.3469 -0.387025 -0.0626881 0 0 0 
52.4469 68.4786 -0.387024 -0.0626877 0 0 0 
54.3219 65.4782 -0.387024 -0.0626877 0 0 0 
53.7984 67.3533 -0.387024 -0.0626877 0 0 0 
55.3921 66.6305 -0.466814 -0.0626877 0 0 0 
54.6796 66.0042 -0.466814 -0.0626877 0 0 0 
55.8318 67.739 -0.466814 -0.0626882 0 0 0 
57.2647 66.7923 -0.466814 -0.0626882 0 0 0 
57.3491 67.1934 -0.466814 -0.0626882 0 0 0 
58.8817 64.9775 -0.542951 -0.0626882 0 0 0 
58.4656 63.9765 -0.542951 -0.0626882 0 0 0 
58.5122 68.8131 -0.54295 -0.0626881 0 0 0 
59.5828 64.4952 -0.54295 -0.0626881 0 0 0 
60.1298 65.2257 -0.54295 -0.0626881 0 0 0 
61.8577 63.8378 -0.614837 -0.0626881 0 0 0 
61.4121 63.8811 -0.614837 -0.0626881 0 0 0 
61.5466 68.4457 -0.614837 -0.0626879 0 0 0 
62.4224 64.5985 -0.614837 -0.0626879 0 0 0 
62.5143 68.0705 -0.614837 -0.0626879 0 0 0 
63.1791 63.5454 -0.681912 -0.0626879 0 0 0 
62.6573 68.0186 -0.681912 -0.0626879 0 0 0 
64.2827 68.1666 -0.681912 -0.0626882 0 0 0 
64.3268 67.233 -0.681912 -0.0626882 0 0 0 
64.6845 68.7316 -0.681912 -0.0626882 0 0 0 
65.9317 64.5472 -0.74365 -0.0626882 0 0 0 
65.9714 66.2327 -0.74365 -0.0626882 0 0 0 
66.6382 68.0511 -0.74365 -0.0626881 0 0 0 
67.2033 65.6687 -0.74365 -0.0626881 0 0 0 
66.9474 67.0101 -0.74365 -0.0626881 0 0 0 
67.9634 63.4405 -0.799568 -0.0626881 0 0 0 
68.5073 63.2556 -0.799568 -0.0626881 0 0 0 
68.4781 68.9558 -0.799568 -0.0626881 0 0 0 
69.0226 67.925 -0.799568 -0.0626881 0 0 0 
69.1329 64.3998 -0.799568 -0.0626881 0 0 0 
69.195 66.6045 -0.849228 -0.0626881 0 0 0 
69.7021 65.0406 -0.849228 -0.0626881 0 0 0 
70.0229 66.2599 -0.849228 -0.0626881 0 0 0 
70.2428 68.4809 -0.849228 -0.0626881 0 0 0 
69.9075 68.1586 -0.849228 -0.0626881 0 0 0 
71.2003 64.8159 -0.892242 -0.0626881 0 0 0 
70.9936 63.1979 -0.892242 -0.0626881 0 0 0 
70.7945 68.6182 -0.892242 -0.0626879 0 0 0 
70.9624 68.2363 -0.892242 -0.0626879 0 0 0 
71.9792 66.1546 -0.892242 -0.0626879 0 0 0 
72.8947 65.525 -0.928272 -0.0626879 0 0 0 
72.2809 66.4216 -0.928272 -0.0626879 0 0 0 
73.2028 66.002 -0.928273 -0.0626885 0 0 0 
73.0673 66.0835 -0.928273 -0.0626885 0 0 0 
73.7482 64.3273 -0.957038 -0.0626886 0 0 0 
73.785 65.1391 -0.957038 -0.0626886 0 0 0 
73.6858 66.8327 -0.957038 -0.0626886 0 0 0 
73.6545 67.3923 -0.957038 -0.0626881 0 0 0 
74.1065 66.377 -0.957038 -0.0626881 0 0 0 
74.6852 63.0893 -0.978314 -0.0626881 0 0 0 
75.0112 63.8135 -0.978314 -0.0626881 0 0 0 
74.5342 63.324 -0.978314 -0.0626881 0 0 0 
74.8608 67.9188 -0.978314 -0.0626884 0 0 0 
74.5666 68.593 -0.978314 -0.0626884 0 0 0 
75.0696 65.6089 -0.991933 -0.0626884 0 0 0 
75.0628 64.7721 -0.991933 -0.0626884 0 0 0 
75.2563 65.1664 -0.991933 -0.0626884 0 0 0 
75.0307 68.0333 -0.991933 -0.0626877 0 0 0 
75.0818 67.9384 -0.991933 -0.0626877 0 0 0 
75.5328 63.4451 -0.997789 -0.0626877 0 0 0 
75.4065 65.2263 -0.997789 -0.0626877 0 0 0 
75.407 65.544 -0.997789 -0.0626877 0 0 0 
75.506 64.2752 -0.997789 -0.0626883 0 0 0 
75.502 64.4181 -0.997789 -0.0626883 0 0 0 
75.2598 68.0172 -0.995836 -0.0626883 0 0 0 
75.3716 65.0703 -0.995836 -0.0626883 0 0 0 
75.4228 64.7184 -0.995836 -0.0626883 0 0 0 
75.1588 68.8948 -0.995836 -0.0626881 0 0 0 
75.2139 65.8247 -0.995836 -0.0626881 0 0 0 
75.2468 64.5785 -0.986089 -0.0626881 0 0 0 
75.2449 63.2158 -0.986089 -0.0626881 0 0 0 
75.1303 66.0184 -0.986089 -0.0626881 0 0 0 
74.9396 68.4256 -0.986089 -0.0626879 0 0 0 
74.6853 67.9153 -0.986089 -0.0626879 0 0 0 
74.5758 67.1132 -0.968624 -0.0626879 0 0 0 
74.3882 65.2211 -0.968624 -0.0626879 0 0 0 
74.3998 67.0543 -0.968624 -0.0626879 0 0 0 
73.9979 68.8196 -0.968624 -0.0626878 0 0 0 
74.2953 66.7569 -0.968624 -0.0626878 0 0 0 
73.7323 67.6239 -0.943579 -0.0626878 0 0 0 
73.3444 62.9213 -0.943579 -0.0626878 0 0 0 
73.4799 63.2824 -0.943579 -0.0626878 0 0 0 
73.2258 67.8914 -0.943579 -0.0626882 0 0 0 
73.2781 65.77 -0.943579 -0.0626882 0 0 0 
72.3113 64.6373 -0.911149 -0.0626882 0 0 0 
72.5493 63.3483 -0.911149 -0.0626882 0 0 0 
72.5478 66.5554 -0.911149 -0.0626882 0 0 0 
72.3321 68.4407 -0.911149 -0.0626881 0 0 0 
71.8988 65.6652 -0.911149 -0.0626881 0 0 0 
71.6979 63.0253 -0.871588 -0.0626881 0 0 0 
71.399 63.6281 -0.871588 -0.0626881 0 0 0 
71.0091 65.543 -0.871588 -0.0626881 0 0 0 
70.0704 67.9882 -0.871588 -0.0626877 0 0 0 
70.062 68.5707 -0.871588 -0.0626877 0 0 0 
69.791 66.2942 -0.825206 -0.0626877 0 0 0 
69.9173 65.0026 -0.825206 -0.0626877 0 0 0 
70.0208 65.5507 -0.825206 -0.0626877 0 0 0 
68.6254 65.2978 -0.825205 -0.062688 0 0 0 
69.0637 67.785 -0.825205 -0.062688 0 0 0 
67.2839 63.1166 -0.772365 -0.062688 0 0 0 
67.7361 65.7516 -0.772365 -0.062688 0 0 0 
68.1902 65.3202 -0.772365 -0.062688 0 0 0 
67.216 67.1418 -0.772365 -0.062688 0 0 0 
66.2638 65.5689 -0.772365 -0.062688 0 0 0 
66.2564 63.1571 -0.713479 -0.062688 0 0 0 
65.696 67.4528 -0.713479 -0.062688 0 0 0 
64.7129 64.5023 -0.713479 -0.062688 0 0 0 
65.5369 67.9722 -0.713479 -0.0626881 0 0 0 
64.6795 68.9259 -0.713479 -0.0626881 0 0 0 
63.2676 66.0734 -0.64901 -0.062688 0 0 0 
62.6806 65.6336 -0.64901 -0.062688 0 0 0 
62.6846 63.6674 -0.64901 -0.062688 0 0 0 
61.7601 64.5417 -0.64901 -0.0626879 0 0 0 
63.0466 68.5246 -0.64901 -0.0626879 0 0 0 
61.1356 66.268 -0.579461 -0.0626879 0 0 0 
60.1137 64.1833 -0.579461 -0.0626879 0 0 0 
61.5541 63.7788 -0.579461 -0.0626879 0 0 0 
58.972 63.2819 -0.579461 -0.0626879 0 0 0 
59.3043 66.2961 -0.579461 -0.0626879 0 0 0 
57.8365 66.3212 -0.505377 -0.0626878 0 0 0 
58.4894 64.4304 -0.505377 -0.0626878 0 0 0 
58.4574 65.9893 -0.505377 -0.0626878 0 0 0 
56.6331 64.7814 -0.505377 -0.0626878 0 0 0 
57.3013 66.3206 -0.505377 -0.0626878 0 0 0 
55.572 67.9804 -0.427338 -0.0626878 0 0 0 
55.9598 65.3849 -0.427338 -0.0626878 0 0 0 
54.2697 63.9053 -0.427338 -0.0626878 0 0 0 
54.4501 67.4563 -0.427337 -0.0626881 0 0 0 
54.6893 66.2705 -0.427337 -0.0626881 0 0 0 
51.7736 63.0999 -0.345954 -0.0626881 0 0 0 
53.032 65.8475 -0.345954 -0.0626881 0 0 0 
51.6878 64.9953 -0.345954 -0.0626881 0 0 0 
50.5452 67.347 -0.345954 -0.062688 0 0 0 
50.1341 68.9588 -0.345954 -0.062688 0 0 0 
48.3319 64.287 -0.261863 -0.062688 0 0 0 
48.0439 62.917 -0.261863 -0.062688 0 0 0 
49.416 63.1349 -0.261863 -0.062688 0 0 0 
48.9171 68.7901 -0.261863 -0.0626878 0 0 0 
47.3144 67.118 -0.261863 -0.0626878 0 0 0 
45.9431 63.2342 -0.175723 -0.0626878 0 0 0 
46.2705 64.1641 -0.175723 -0.0626878 0 0 0 
44.8422 64.6452 -0.175723 -0.0626878 0 0 0 
44.0791 64.0198 -0.175722 -0.0626884 0 0 0 
44.575 64.8877 -0.175722 -0.0626884 0 0 0 
43.4805 66.9876 -0.0882052 -0.0626884 0 0 0 
43.7541 64.4122 -0.0882052 -0.0626884 0 0 0 
42.5282 65.8589 -0.0882052 -0.0626884 0 0 0 
42.4404 67.9439 -0.0882064 -0.0626877 0 0 0 
41.7335 67.2015 -0.0882064 -0.0626877 0 0 0 
39.5723 63.2029 0 -0.0626877 0 0 0 
40.6038 68.0499 0 -0.0626877 0 0 0 
39.4216 63.0709 0 -0.0626877 0 0 0 
39.0654 67.1749 0 -0.0626877 0 0 0 
39.8674 68.7808 0 -0.0626877 0 0 0 
36.3359 65.2654 0.0882052 -0.0626877 0 0 0 
37.4476 64.924 0.0882052 -0.0626877 0 0 0 
36.1388 63.2992 0.0882052 -0.0626877 0 0 0 
35.3058 65.2963 0.0882064 -0.0626884 0 0 0 
34.5304 65.0382 0.0882064 -0.0626884 0 0 0 
32.6876 63.8266 0.175723 -0.0626884 0 0 0 
33.4978 63.0985 0.175723 -0.0626884 0 0 0 
32.9091 63.5271 0.175723 -0.0626884 0 0 0 
31.3575 67.5003 0.175722 -0.0626878 0 0 0 
31.883 65.9629 0.175722 -0.0626878 0 0 0 
28.7339 62.95 0.261863 -0.0626878 0 0 0 
29.7104 65.5588 0.261863 -0.0626878 0 0 0 
30.5009 65.2784 0.261863 -0.0626878 0 0 0 
28.4906 66.1425 0.261863 -0.062688 0 0 0 
28.7546 67.0493 0.261863 -0.062688 0 0 0 
27.9991 65.5675 0.345954 -0.062688 0 0 0 
27.1303 63.616 0.345954 -0.062688 0 0 0 
26.1416 64.1117 0.345954 -0.062688 0 0 0 
25.5812 66.0687 0.345954 -0.0626881 0 0 0 
25.8856 65.0681 0.345954 -0.0626881 0 0 0 
23.6638 64.3319 0.427338 -0.062688 0 0 0 
23.2947 63.6999 0.427338 -0.062688 0 0 0 
24.1481 65.6278 0.427338 -0.062688 0 0 0 
22.1645 63.9689 0.427337 -0.0626878 0 0 0 
24.6669 68.5824 0.427337 -0.0626878 0 0 0 
21.2869 66.7607 0.505377 -0.0626878 0 0 0 
20.125 63.0903 0.505377 -0.0626878 0 0 0 
20.709 65.1953 0.505377 -0.0626878 0 0 0 
19.5575 64.0555 0.505377 -0.0626878 0 0 0 
19.5418 63.7174 0.505377 -0.0626878 0 0 0 
18.1252 65.6368 0.579461 -0.0626879 0 0 0 
18.9124 65.85 0.579461 -0.0626879 0 0 0 
18.3488 65.3559 0.579461 -0.0626879 0 0 0 
17.6397 66.7151 0.579461 -0.0626879 0 0 0 
17.8597 66.8259 0.579461 -0.0626879 0 0 0 
16.6113 66.2076 0.64901 -0.0626879 0 0 0 
16.0868 65.5381 0.64901 -0.0626879 0 0 0 
16.7451 67.5097 0.64901 -0.0626879 0 0 0 
15.7823 67.9121 0.64901 -0.062688 0 0 0 
15.7763 68.3273 0.64901 -0.062688 0 0 0 
14.1715 67.6623 0.713479 -0.0626881 0 0 0 
13.9608 66.2933 0.713479 -0.0626881 0 0 0 
12.5805 64.0565 0.713479 -0.0626881 0 0 0 
12.6353 65.7846 0.713479 -0.062688 0 0 0 
13.0985 65.753 0.713479 -0.062688 0 0 0 
10.1932 63.3247 0.772365 -0.062688 0 0 0 
10.7583 64.8016 0.772365 -0.062688 0 0 0 
11.4624 66.468 0.772365 -0.062688 0 0 0 
11.3244 66.8326 0.772365 -0.062688 0 0 0 
10.6859 65.6806 0.772365 -0.062688 0 0 0 
9.60958 65.3624 0.825206 -0.062688 0 0 0 
9.61584 66.573 0.825206 -0.062688 0 0 0 
9.96895 64.9739 0.825206 -0.062688 0 0 0 
9.5826 68.1972 0.825205 -0.0626877 0 0 0 
8.98061 65.9823 0.825205 -0.0626877 0 0 0 
7.88786 62.9193 0.871588 -0.0626877 0 0 0 
7.98973 63.1988 0.871588 -0.0626877 0 0 0 
7.26893 63.4526 0.871588 -0.0626877 0 0 0 
6.62337 64.6302 0.871588 -0.0626881 0 0 0 
7.86309 67.7713 0.871588 -0.0626881 0 0 0 
5.99728 63.6446 0.911149 -0.0626881 0 0 0 
6.4988 66.2874 0.911149 -0.0626881 0 0 0 
6.42393 63.5373 0.911149 -0.0626881 0 0 0 
5.64985 66.5862 0.911149 -0.0626882 0 0 0 
5.89733 66.0198 0.911149 -0.0626882 0 0 0 
4.65719 65.0261 0.943579 -0.0626882 0 0 0 
5.09755 65.5317 0.943579 -0.0626882 0 0 0 
4.89529 63.5089 0.943579 -0.0626882 0 0 0 
4.79656 67.5257 0.943579 -0.0626878 0 0 0 
4.53195 67.7345 0.943579 -0.0626878 0 0 0 
3.84713 63.6514 0.968624 -0.0626878 0 0 0 
4.44273 68.2275 0.968624 -0.0626878 0 0 0 
4.06559 64.9549 0.968624 -0.0626878 0 0 0 
3.82224 67.236 0.968624 -0.0626879 0 0 0 
3.86829 65.73 0.968624 -0.0626879 0 0 0 
3.27101 64.2071 0.986089 -0.0626879 0 0 0 
2.98239 63.1581 0.986089 -0.0626879 0 0 0 
3.05029 64.2027 0.986089 -0.0626879 0 0 0 
3.23054 67.4498 0.986089 -0.0626881 0 0 0 
3.55431 68.8332 0.986089 -0.0626881 0 0 0 
2.99988 65.4712 0.995836 -0.0626881 0 0 0 
2.76756 63.6265 0.995836 -0.0626881 0 0 0 
2.93852 64.9883 0.995836 -0.0626881 0 0 0 
3.08409 68.6521 0.995836 -0.0626883 0 0 0 
2.92776 66.0507 0.995836 -0.0626883 0 0 0 
2.77957 64.9162 0.997789 -0.0626883 0 0 0 
2.81157 65.4884 0.997789 -0.0626883 0 0 0 
2.72545 63.4335 0.997789 -0.0626883 0 0 0 
2.85449 65.6474 0.997789 -0.0626877 0 0 0 
2.92738 67.1228 0.997789 -0.0626877 0 0 0 
2.97415 63.6854 0.991933 -0.0626877 0 0 0 
3.02444 66.4042 0.991933 -0.0626877 0 0 0 
2.94679 64.816 0.991933 -0.0626877 0 0 0 
3.13462 65.1182 0.991933 -0.0626884 0 0 0 
3.1515 68.4453 0.991933 -0.0626884 0 0 0 
3.48975 64.7529 0.978314 -0.0626884 0 0 0 
3.28354 65.6481 0.978314 -0.0626884 0 0 0 
3.49454 66.0644 0.978314 -0.0626884 0 0 0 
3.58172 66.3422 0.978314 -0.0626881 0 0 0 
3.82734 67.5361 0.978314 -0.0626881 0 0 0 
3.892 63.4567 0.957038 -0.0626881 0 0 0 
4.19998 63.2526 0.957038 -0.0626881 0 0 0 
4.29375 62.9124 0.957038 -0.0626881 0 0 0 
4.62956 65.2539 0.957038 -0.0626886 0 0 0 
4.76102 66.9761 0.957038 -0.0626886 0 0 0 
5.18587 65.7765 0.928272 -0.0626885 0 0 0 
5.17082 64.9645 0.928272 -0.0626885 0 0 0 
5.29538 65.035 0.928272 -0.0626885 0 0 0 
5.65323 67.6355 0.928273 -0.0626879 0 0 0 
5.97148 66.1286 0.928273 -0.0626879 0 0 0 
6.77884 64.5026 0.892242 -0.0626879 0 0 0 
6.06077 64.0999 0.892242 -0.0626879 0 0 0 
6.32538 63.917 0.892242 -0.0626879 0 0 0 
6.53123 67.9847 0.892242 -0.0626881 0 0 0 
6.66516 68.8948 0.892242 -0.0626881 0 0 0 
7.76439 64.6614 0.849228 -0.0626881 0 0 0 
8.33086 64.1176 0.849228 -0.0626881 0 0 0 
7.569 63.4114 0.849228 -0.0626881 0 0 0 
8.82946 67.1205 0.849228 -0.0626881 0 0 0 
8.17877 66.3993 0.849228 -0.0626881 0 0 0 
9.23642 63.768 0.799568 -0.0626881 0 0 0 
10.3024 64.3949 0.799568 -0.0626881 0 0 0 
9.88495 64.6651 0.799568 -0.0626881 0 0 0 
10.7503 65.775 0.799568 -0.0626881 0 0 0 
10.7148 68.5735 0.799568 -0.0626881 0 0 0 
12.142 63.8577 0.74365 -0.0626881 0 0 0 
11.4752 66.1126 0.74365 -0.0626881 0 0 0 
11.6298 65.0523 0.74365 -0.0626881 0 0 0 
12.6882 66.7391 0.74365 -0.0626882 0 0 0 
12.9062 67.295 0.74365 -0.0626882 0 0 0 
13.415 63.9855 0.681912 -0.0626882 0 0 0 
13.4848 65.187 0.681912 -0.0626882 0 0 0 
14.654 65.1321 0.681912 -0.0626879 0 0 0 
15.4601 67.6316 0.681912 -0.0626879 0 0 0 
14.8037 68.4727 0.681912 -0.0626879 0 0 0 
16.5291 65.5609 0.614837 -0.0626879 0 0 0 
16.2825 66.2066 0.614837 -0.0626879 0 0 0 
17.674 67.2018 0.614837 -0.0626881 0 0 0 
17.7657 65.9416 0.614837 -0.0626881 0 0 0 
16.0741 68.5028 0.614837 -0.0626881 0 0 0 
20.2951 63.4496 0.542951 -0.0626881 0 0 0 
19.7324 63.7113 0.542951 -0.0626881 0 0 0 
19.8594 68.7164 0.54295 -0.0626882 0 0 0 
20.7527 68.2152 0.54295 -0.0626882 0 0 0 
20.4155 68.0836 0.54295 -0.0626882 0 0 0 
21.8946 66.0195 0.466814 -0.0626882 0 0 0 
21.1151 66.343 0.466814 -0.0626882 0 0 0 
23.3961 67.0154 0.466814 -0.0626877 0 0 0 
21.6953 68.8772 0.466814 -0.0626877 0 0 0 
22.6399 67.4714 0.466814 -0.0626877 0 0 0 
25.0756 63.2954 0.387025 -0.0626877 0 0 0 
24.84 66.1766 0.387025 -0.0626877 0 0 0 
26.5106 67.9627 0.387024 -0.0626881 0 0 0 
25.7005 66.0802 0.387024 -0.0626881 0 0 0 
25.8502 67.4631 0.387024 -0.0626881 0 0 0 
28.9476 63.2945 0.304206 -0.0626881 0 0 0 
27.265 66.4697 0.304206 -0.0626881 0 0 0 
27.6084 68.8243 0.304206 -0.0626882 0 0 0 
29.075 68.8576 0.304206 -0.0626882 0 0 0 
27.0105 68.9126 0.304206 -0.0626882 0 0 0 
30.1845 67.7624 0.219007 -0.0626882 0 0 0 
30.3166 66.4082 0.219007 -0.0626882 0 0 0 
32.5438 64.4813 0.219007 -0.0626881 0 0 0 
31.1204 68.6975 0.219007 -0.0626881 0 0 0 
29.9017 68.9429 0.219007 -0.0626881 0 0 0 
35.4429 63.5253 0.132094 -0.0626881 0 0 0 
32.9719 67.3703 0.132094 -0.0626881 0 0 0 
35.3764 64.5232 0.132094 -0.0626883 0 0 0 
34.8944 65.8434 0.132094 -0.0626883 0 0 0 
34.4041 65.9324 0.132094 -0.0626883 0 0 0 
36.265 63.7877 0.0441458 -0.0626883 0 0 0 
37.2388 66.1459 0.0441458 -0.0626883 0 0 0 
38.7363 67.2348 0.0441469 -0.0626877 0 0 0 
38.651 68.6676 0.0441469 -0.0626877 0 0 0 
38.8757 66.6738 0.0441469 -0.0626877 0 0 0 
39.6596 66.2822 -0.0441458 -0.0626877 0 0 0 
40.0653 65.1378 -0.0441458 -0.0626877 0 0 0 
40.2636 67.2622 -0.0441469 -0.0626883 0 0 0 
41.6773 64.8446 -0.0441469 -0.0626883 0 0 0 
41.8117 68.6914 -0.0441469 -0.0626883 0 0 0 
42.8005 74.1384 -0.0879045 -0.103643 0 0 0 
41.1853 71.2251 -0.0879045 -0.103643 0 0 0 
40.4683 74.2654 -0.0220024 -0.103718 0 0 0 
40.091 71.4867 -0.0220024 -0.103718 0 0 0 
39.8897 71.1517 0 -0.0979757 0 0 0 
37.8419 70.1565 0 -0.0979757 0 0 0 
37.6518 73.061 0.0220024 -0.103718 0 0 0 
35.1713 70.2411 0.0879043 -0.103643 0 0 0 
36.2513 69.5667 0.0879043 -0.103643 0 0 0 
37.2623 74.3366 0.0879043 -0.103643 0 0 0 
35.158 71.7691 0.0879045 -0.103643 0 0 0 
35.5677 72.566 0.0879045 -0.103643 0 0 0 
32.8382 70.9673 0.17512 -0.103643 0 0 0 
32.6533 71.0142 0.17512 -0.103643 0 0 0 
33.9526 71.2319 0.17512 -0.103643 0 0 0 
31.995 73.5331 0.17512 -0.103643 0 0 0 
33.0239 74.9809 0.17512 -0.103643 0 0 0 
29.4562 70.6285 0.260966 -0.103643 0 0 0 
30.1272 72.2151 0.260966 -0.103643 0 0 0 
28.7465 69.8249 0.260966 -0.103643 0 0 0 
29.7105 74.9862 0.260967 -0.103643 0 0 0 
29.4082 71.6962 0.260967 -0.103643 0 0 0 
27.2621 70.0647 0.344769 -0.103643 0 0 0 
26.1947 69.9814 0.344769 -0.103643 0 0 0 
25.4943 71.0046 0.344769 -0.103643 0 0 0 
26.6355 72.866 0.344769 -0.103643 0 0 0 
26.858 73.3893 0.344769 -0.103643 0 0 0 
24.518 73.2842 0.425874 -0.103643 0 0 0 
24.555 70.5919 0.425874 -0.103643 0 0 0 
24.8468 74.8699 0.425874 -0.103643 0 0 0 
24.381 74.7692 0.425874 -0.103643 0 0 0 
23.0117 74.1141 0.425874 -0.103643 0 0 0 
21.9064 73.6188 0.503646 -0.103643 0 0 0 
22.1116 72.4746 0.503646 -0.103643 0 0 0 
19.8607 73.5894 0.503646 -0.103643 0 0 0 
21.9751 74.8415 0.503646 -0.103643 0 0 0 
21.6802 74.2539 0.503646 -0.103643 0 0 0 
19.6411 74.5371 0.577476 -0.103643 0 0 0 
19.4692 69.2682 0.577476 -0.103643 0 0 0 
18.6071 74.3887 0.577476 -0.103643 0 0 0 
19.0453 74.9086 0.577476 -0.103643 0 0 0 
17.457 71.4395 0.577476 -0.103643 0 0 0 
16.7055 73.6468 0.646787 -0.103643 0 0 0 
15.155 68.9957 0.646787 -0.103643 0 0 0 
14.842 71.3321 0.646787 -0.103643 0 0 0 
16.2464 72.8277 0.646787 -0.103643 0 0 0 
15.2304 72.5326 0.646787 -0.103643 0 0 0 
13.5974 72.0653 0.711035 -0.103643 0 0 0 
14.0368 72.8775 0.711035 -0.103643 0 0 0 
13.2759 72.2962 0.711035 -0.103643 0 0 0 
13.4331 73.4154 0.711035 -0.103643 0 0 0 
12.8012 74.1041 0.711035 -0.103643 0 0 0 
11.0907 70.1968 0.769719 -0.103643 0 0 0 
12.5691 74.544 0.769719 -0.103643 0 0 0 
11.2972 73.059 0.769719 -0.103643 0 0 0 
11.6569 72.7673 0.769719 -0.103643 0 0 0 
10.0725 69.1369 0.822379 -0.103643 0 0 0 
10.4367 72.8125 0.822379 -0.103643 0 0 0 
10.2209 72.0271 0.822379 -0.103643 0 0 0 
9.03476 72.3746 0.822379 -0.103643 0 0 0 
9.29432 73.9258 0.822379 -0.103643 0 0 0 
7.66852 69.0737 0.868603 -0.103643 0 0 0 
7.72898 69.3359 0.868603 -0.103643 0 0 0 
7.972 69.9682 0.868603 -0.103643 0 0 0 
8.10297 73.8399 0.868602 -0.103642 0 0 0 
7.7882 74.1243 0.868602 -0.103642 0 0 0 
6.41466 71.075 0.908028 -0.103642 0 0 0 
6.8149 69.0635 0.908028 -0.103642 0 0 0 
7.00856 72.9478 0.908028 -0.103642 0 0 0 
6.6966 73.2218 0.908028 -0.103642 0 0 0 
6.20913 73.0341 0.908028 -0.103642 0 0 0 
4.66758 69.1143 0.940347 -0.103642 0 0 0 
5.11999 69.3017 0.940347 -0.103642 0 0 0 
5.72481 71.7363 0.940347 -0.103642 0 0 0 
5.01679 72.1086 0.940347 -0.103643 0 0 0 
5.15841 72.5321 0.940347 -0.103643 0 0 0 
4.42555 71.5797 0.965306 -0.103643 0 0 0 
4.92931 73.5998 0.965306 -0.103643 0 0 0 
4.34743 70.6311 0.965306 -0.103643 0 0 0 
4.8977 74.5401 0.965306 -0.103643 0 0 0 
4.38618 71.9002 0.965306 -0.103643 0 0 0 
3.60462 69.996 0.982711 -0.103643 0 0 0 
3.6813 70.4351 0.982711 -0.103643 0 0 0 
3.80878 71.5099 0.982711 -0.103643 0 0 0 
3.8826 74.3388 0.982711 -0.103642 0 0 0 
3.92686 74.261 0.982711 -0.103642 0 0 0 
3.2856 69.9355 0.992425 -0.103642 0 0 0 
3.26395 69.9053 0.992425 -0.103642 0 0 0 
3.70376 74.5579 0.992425 -0.103643 0 0 0 
3.64499 73.816 0.992425 -0.103643 0 0 0 
3.47911 72.6367 0.992425 -0.103643 0 0 0 
3.12296 69.4554 0.994371 -0.103643 0 0 0 
3.20741 70.2416 0.994371 -0.103643 0 0 0 
3.59468 74.217 0.994371 -0.103642 0 0 0 
3.64799 74.6653 0.994371 -0.103642 0 0 0 
3.58712 74.0388 0.994371 -0.103642 0 0 0 
3.34902 69.874 0.988535 -0.103642 0 0 0 
3.23327 69.6708 0.988535 -0.103642 0 0 0 
3.9862 74.8446 0.988535 -0.103643 0 0 0 
3.56992 70.9968 0.988535 -0.103643 0 0 0 
3.67418 73.3779 0.988535 -0.103643 0 0 0 
3.85284 69.7273 0.974963 -0.103643 0 0 0 
4.04571 70.9551 0.974963 -0.103643 0 0 0 
4.26271 72.1067 0.974963 -0.103642 0 0 0 
4.23169 74.2837 0.974963 -0.103642 0 0 0 
4.07242 74.324 0.974963 -0.103642 0 0 0 
4.89035 69.3349 0.95376 -0.103642 0 0 0 
4.53401 69.868 0.95376 -0.103642 0 0 0 
4.96898 74.2529 0.95376 -0.103642 0 0 0 
4.9729 72.434 0.95376 -0.103642 0 0 0 
4.85882 72.5188 0.95376 -0.103642 0 0 0 
5.69201 70.5867 0.925093 -0.103642 0 0 0 
5.51387 70.5967 0.925093 -0.103642 0 0 0 
6.0235 70.7528 0.925093 -0.103642 0 0 0 
6.44345 72.0502 0.925093 -0.103642 0 0 0 
6.50634 69.7924 0.889186 -0.103642 0 0 0 
6.4628 70.3499 0.889186 -0.103642 0 0 0 
6.62996 70.582 0.889186 -0.103642 0 0 0 
6.90914 74.5837 0.889186 -0.103643 0 0 0 
7.95705 74.7198 0.889186 -0.103643 0 0 0 
8.20383 72.5469 0.846319 -0.103643 0 0 0 
8.39196 71.7002 0.846319 -0.103643 0 0 0 
8.19532 73.1782 0.846319 -0.103643 0 0 0 
9.2193 72.582 0.846319 -0.103643 0 0 0 
9.32947 71.9036 0.846319 -0.103643 0 0 0 
9.73777 71.0725 0.796829 -0.103643 0 0 0 
9.63802 71.733 0.796829 -0.103643 0 0 0 
9.58853 69.3915 0.796829 -0.103643 0 0 0 
11.1463 74.3853 0.796829 -0.103643 0 0 0 
10.8235 74.4006 0.796829 -0.103643 0 0 0 
12.1404 69.0201 0.741103 -0.103643 0 0 0 
11.6444 70.868 0.741103 -0.103643 0 0 0 
12.0363 72.1951 0.741103 -0.103643 0 0 0 
13.2088 70.3973 0.741103 -0.103643 0 0 0 
12.689 73.9655 0.741103 -0.103643 0 0 0 
14.2062 72.5017 0.679576 -0.103643 0 0 0 
15.1028 69.205 0.679576 -0.103643 0 0 0 
14.6167 71.7373 0.679576 -0.103643 0 0 0 
14.7739 74.3062 0.679576 -0.103643 0 0 0 
15.2574 72.8372 0.679576 -0.103643 0 0 0 
16.9304 71.1961 0.612731 -0.103643 0 0 0 
16.2933 71.4999 0.612731 -0.103643 0 0 0 
15.9723 70.9299 0.612731 -0.103643 0 0 0 
18.0541 70.5857 0.612731 -0.103643 0 0 0 
17.0266 73.52 0.612731 -0.103643 0 0 0 
19.3569 69.0756 0.541091 -0.103643 0 0 0 
20.3868 69.8014 0.541091 -0.103643 0 0 0 
20.4875 72.2162 0.541091 -0.103643 0 0 0 
19.0253 74.8194 0.541091 -0.103643 0 0 0 
20.3094 73.1832 0.541091 -0.103643 0 0 0 
23.3646 69.0504 0.465215 -0.103643 0 0 0 
21.5308 73.0475 0.465215 -0.103643 0 0 0 
21.9723 73.4262 0.465216 -0.103643 0 0 0 
22.415 73.4263 0.465216 -0.103643 0 0 0 
23.5563 74.314 0.465216 -0.103643 0 0 0 
24.9067 70.0701 0.385699 -0.103643 0 0 0 
24.9973 71.305 0.385699 -0.103643 0 0 0 
25.3512 74.7272 0.385698 -0.103643 0 0 0 
25.545 74.8811 0.385698 -0.103643 0 0 0 
25.4344 72.2974 0.385698 -0.103643 0 0 0 
27.6356 71.2786 0.303164 -0.103643 0 0 0 
26.7752 72.5171 0.303164 -0.103643 0 0 0 
29.3711 71.7721 0.303165 -0.103642 0 0 0 
28.7324 74.5368 0.303165 -0.103642 0 0 0 
28.7774 72.2978 0.303165 -0.103642 0 0 0 
30.4728 71.801 0.218257 -0.103642 0 0 0 
31.097 68.9893 0.218257 -0.103642 0 0 0 
32.6348 74.0152 0.218256 -0.103643 0 0 0 
31.9346 73.4877 0.218256 -0.103643 0 0 0 
32.5741 73.6561 0.218256 -0.103643 0 0 0 
35.0048 70.0376 0.131641 -0.103643 0 0 0 
33.056 70.5723 0.131641 -0.103643 0 0 0 
33.7246 74.6158 0.131642 -0.103642 0 0 0 
35.3915 74.75 0.131642 -0.103642 0 0 0 
35.1844 72.7209 0.131642 -0.103642 0 0 0 
36.0584 72.5965 0.0439956 -0.103642 0 0 0 
36.4522 69.1564 0.0439956 -0.103642 0 0 0 
36.7689 74.279 0.0439947 -0.103643 0 0 0 
38.6974 74.9177 0.0439947 -0.103643 0 0 0 
39.4318 72.0758 -0.0439956 -0.103643 0 0 0 
40.0699 72.1212 -0.0439956 -0.103643 0 0 0 
40.3773 72.1523 -0.0439956 -0.103643 0 0 0 
40.2323 73.957 -0.0439947 -0.103642 0 0 0 
42.0977 73.4995 -0.0439947 -0.103642 0 0 0 
42.9174 73.2042 -0.131641 -0.103642 0 0 0 
43.7985 69.717 -0.131641 -0.103642 0 0 0 
44.5586 69.7094 -0.131641 -0.103642 0 0 0 
43.7079 74.8117 -0.131642 -0.103643 0 0 0 
44.3459 73.6808 -0.131642 -0.103643 0 0 0 
46.6114 69.8268 -0.218257 -0.103643 0 0 0 
46.0734 69.7668 -0.218257 -0.103643 0 0 0 
45.8443 70.8682 -0.218257 -0.103643 0 0 0 
46.467 74.0727 -0.218256 -0.103642 0 0 0 
47.9739 72.5442 -0.218256 -0.103642 0 0 0 
49.351 71.4862 -0.303164 -0.103642 0 0 0 
51.5479 69.1327 -0.303164 -0.103642 0 0 0 
48.9874 73.2563 -0.303164 -0.103642 0 0 0 
51.145 73.5666 -0.303165 -0.103643 0 0 0 
50.696 71.7266 -0.303165 -0.103643 0 0 0 
51.6424 70.0284 -0.385699 -0.103643 0 0 0 
51.966 73.3401 -0.385699 -0.103643 0 0 0 
53.7448 69.7018 -0.385699 -0.103643 0 0 0 
54.2891 74.5639 -0.385698 -0.103643 0 0 0 
53.0031 73.6457 -0.385698 -0.103643 0 0 0 
56.7136 70.0241 -0.465215 -0.103643 0 0 0 
55.1718 71.6303 -0.465215 -0.103643 0 0 0 
54.9093 70.8996 -0.465215 -0.103643 0 0 0 
55.5334 73.3916 -0.465216 -0.103643 0 0 0 
55.9999 74.3971 -0.465216 -0.103643 0 0 0 
58.2853 71.8565 -0.541091 -0.103643 0 0 0 
57.44 72.4209 -0.541091 -0.103643 0 0 0 
58.3877 74.5093 -0.541091 -0.103643 0 0 0 
59.269 73.3603 -0.541091 -0.103643 0 0 0 
58.6028 72.465 -0.541091 -0.103643 0 0 0 
60.2375 73.3856 -0.612731 -0.103643 0 0 0 
62.0254 70.0672 -0.612731 -0.103643 0 0 0 
61.4407 73.9288 -0.612731 -0.103643 0 0 0 
61.5887 71.6394 -0.612731 -0.103643 0 0 0 
60.2182 74.3001 -0.612731 -0.103643 0 0 0 
63.4237 71.236 -0.679576 -0.103643 0 0 0 
62.9871 70.8915 -0.679576 -0.103643 0 0 0 
64.5876 72.9185 -0.679576 -0.103643 0 0 0 
64.1464 73.5894 -0.679576 -0.103643 0 0 0 
63.9061 72.9206 -0.679576 -0.103643 0 0 0 
64.8872 70.189 -0.741103 -0.103643 0 0 0 
65.3142 70.4792 -0.741103 -0.103643 0 0 0 
66.4701 71.3224 -0.741103 -0.103643 0 0 0 
66.3006 72.7419 -0.741103 -0.103643 0 0 0 
65.7752 73.588 -0.741103 -0.103643 0 0 0 
67.2663 70.0883 -0.796829 -0.103643 0 0 0 
67.5128 71.0073 -0.796829 -0.103643 0 0 0 
67.7801 72.9867 -0.796829 -0.103643 0 0 0 
67.7601 72.4718 -0.796829 -0.103643 0 0 0 
68.3512 72.4906 -0.796829 -0.103643 0 0 0 
68.9691 69.473 -0.846319 -0.103643 0 0 0 
68.9102 73.4088 -0.846319 -0.103643 0 0 0 
70.2187 70.6185 -0.846319 -0.103643 0 0 0 
68.9886 73.9969 -0.846319 -0.103643 0 0 0 
70.7017 69.1663 -0.889186 -0.103643 0 0 0 
70.9934 69.6054 -0.889186 -0.103643 0 0 0 
70.6726 72.337 -0.889186 -0.103643 0 0 0 
71.2061 73.4819 -0.889186 -0.103642 0 0 0 
70.6558 74.3003 -0.889186 -0.103642 0 0 0 
72.997 69.3467 -0.925093 -0.103642 0 0 0 
72.5394 70.1629 -0.925093 -0.103642 0 0 0 
73.1028 69.3152 -0.925093 -0.103642 0 0 0 
72.9267 70.6593 -0.925093 -0.103642 0 0 0 
72.6746 72.1416 -0.925093 -0.103642 0 0 0 
73.8393 69.73 -0.95376 -0.103642 0 0 0 
72.8799 72.8777 -0.95376 -0.103642 0 0 0 
72.9646 72.1643 -0.95376 -0.103642 0 0 0 
73.452 72.6094 -0.95376 -0.103642 0 0 0 
73.401 72.3294 -0.95376 -0.103642 0 0 0 
74.065 71.7389 -0.974963 -0.103642 0 0 0 
74.3759 69.1663 -0.974963 -0.103642 0 0 0 
73.9301 72.5411 -0.974963 -0.103642 0 0 0 
74.1595 74.7842 -0.974963 -0.103643 0 0 0 
74.3497 71.7971 -0.974963 -0.103643 0 0 0 
75.0493 69.0615 -0.988535 -0.103643 0 0 0 
74.6297 71.5625 -0.988535 -0.103643 0 0 0 
74.8086 69.9096 -0.988535 -0.103643 0 0 0 
74.6363 73.6715 -0.988535 -0.103642 0 0 0 
74.5107 73.6423 -0.988535 -0.103642 0 0 0 
74.911 71.3608 -0.994371 -0.103642 0 0 0 
75.0748 69.7488 -0.994371 -0.103642 0 0 0 
75.1612 69.0059 -0.994371 -0.103642 0 0 0 
74.6118 74.3144 -0.994371 -0.103643 0 0 0 
74.6505 74.1153 -0.994371 -0.103643 0 0 0 
74.9052 71.6631 -0.992425 -0.103643 0 0 0 
74.9817 69.974 -0.992425 -0.103643 0 0 0 
74.6277 74.1615 -0.992425 -0.103642 0 0 0 
74.7385 72.5601 -0.992425 -0.103642 0 0 0 
74.5271 73.72 -0.992425 -0.103642 0 0 0 
74.5138 69.8571 -0.982711 -0.103642 0 0 0 
74.8941 69.9921 -0.982711 -0.103642 0 0 0 
74.3868 74.7612 -0.982711 -0.103643 0 0 0 
74.3442 73.1976 -0.982711 -0.103643 0 0 0 
74.4628 69.6441 -0.982711 -0.103643 0 0 0 
74.0142 72.2061 -0.965306 -0.103643 0 0 0 
74.16 71.7729 -0.965306 -0.103643 0 0 0 
73.4838 72.4418 -0.965306 -0.103643 0 0 0 
73.7249 74.0246 -0.965306 -0.103643 0 0 0 
73.8182 72.621 -0.965306 -0.103643 0 0 0 
73.3818 71.4075 -0.940347 -0.103643 0 0 0 
73.1792 70.0261 -0.940347 -0.103643 0 0 0 
72.3249 73.6757 -0.940347 -0.103642 0 0 0 
72.9238 74.3599 -0.940347 -0.103642 0 0 0 
72.7966 72.1476 -0.940347 -0.103642 0 0 0 
72.5146 68.9958 -0.908028 -0.103642 0 0 0 
71.8177 69.9141 -0.908028 -0.103642 0 0 0 
71.3896 69.4489 -0.908028 -0.103642 0 0 0 
71.4321 71.3693 -0.908028 -0.103642 0 0 0 
71.142 71.991 -0.908028 -0.103642 0 0 0 
70.2383 70.0875 -0.868603 -0.103642 0 0 0 
69.9951 69.5945 -0.868603 -0.103642 0 0 0 
70.0209 70.5898 -0.868602 -0.103643 0 0 0 
69.9227 74.391 -0.868602 -0.103643 0 0 0 
70.3235 73.1432 -0.868602 -0.103643 0 0 0 
68.5858 69.2886 -0.822379 -0.103643 0 0 0 
68.2058 69.549 -0.822379 -0.103643 0 0 0 
68.7048 73.4725 -0.822379 -0.103643 0 0 0 
68.2931 74.4747 -0.822379 -0.103643 0 0 0 
66.4998 69.9585 -0.769719 -0.103643 0 0 0 
67.0891 69.6416 -0.769719 -0.103643 0 0 0 
67.5838 73.5556 -0.769719 -0.103643 0 0 0 
65.9909 70.1962 -0.769719 -0.103643 0 0 0 
66.7462 74.1137 -0.769719 -0.103643 0 0 0 
64.4043 69.0001 -0.711035 -0.103643 0 0 0 
65.1771 70.9954 -0.711035 -0.103643 0 0 0 
65.6785 73.0116 -0.711035 -0.103643 0 0 0 
63.8013 73.3424 -0.711035 -0.103643 0 0 0 
64.0882 71.2074 -0.711035 -0.103643 0 0 0 
63.24 72.6359 -0.646787 -0.103643 0 0 0 
62.8248 70.6773 -0.646787 -0.103643 0 0 0 
63.6136 71.1794 -0.646787 -0.103643 0 0 0 
61.5153 71.7748 -0.646787 -0.103643 0 0 0 
62.26 74.227 -0.646787 -0.103643 0 0 0 
59.2433 69.3036 -0.577476 -0.103643 0 0 0 
60.5379 69.0794 -0.577476 -0.103643 0 0 0 
60.6962 72.9978 -0.577476 -0.103643 0 0 0 
59.2965 72.993 -0.577476 -0.103643 0 0 0 
60.5877 74.1234 -0.577476 -0.103643 0 0 0 
58.4299 73.338 -0.503646 -0.103643 0 0 0 
56.6326 69.3624 -0.503646 -0.103643 0 0 0 
57.4908 70.5734 -0.503646 -0.103643 0 0 0 
58.0551 74.4312 -0.503646 -0.103643 0 0 0 
57.9547 74.8732 -0.503646 -0.103643 0 0 0 
55.255 69.5152 -0.425874 -0.103643 0 0 0 
54.3013 69.3769 -0.425874 -0.103643 0 0 0 
54.8689 69.0282 -0.425874 -0.103643 0 0 0 
53.4205 71.3569 -0.425874 -0.103643 0 0 0 
54.6252 74.5232 -0.425874 -0.103643 0 0 0 
52.0615 69.6589 -0.344769 -0.103643 0 0 0 
52.546 72.505 -0.344769 -0.103643 0 0 0 
50.6397 72.4735 -0.344769 -0.103643 0 0 0 
50.8827 73.9127 -0.344769 -0.103643 0 0 0 
50.4443 70.6655 -0.344769 -0.103643 0 0 0 
49.7935 72.2086 -0.260966 -0.103643 0 0 0 
49.6944 72.5933 -0.260966 -0.103643 0 0 0 
47.1211 71.3886 -0.260967 -0.103643 0 0 0 
47.6991 72.4284 -0.260967 -0.103643 0 0 0 
47.9225 73.8007 -0.260967 -0.103643 0 0 0 
46.1271 73.116 -0.17512 -0.103643 0 0 0 
44.3123 69.6868 -0.17512 -0.103643 0 0 0 
45.2042 72.2433 -0.17512 -0.103643 0 0 0 
44.8457 71.0841 -0.17512 -0.103643 0 0 0 
43.8626 72.304 -0.17512 -0.103643 0 0 0 
43.3092 70.6419 -0.0879043 -0.103643 0 0 0 
43.3882 74.1375 -0.0879043 -0.103643 0 0 0 
39.3618 2.50001 0 1 68 92 71 
41.2132 2.50001 0 1 68 92 71 
39.9167 2.50001 0 1 68 92 71 
40.384 2.50001 0 1 68 92 71 
39.14 2.50001 0 1 68 92 71 
39.4403 2.50001 0 1 68 92 71 
40.9378 2.50001 0 1 68 92 71 
41.0611 2.50001 0 1 68 92 71 
40.7881 2.50001 0 1 68 92 71 
34.7923 2.50001 -0 1 68 92 71 
35.5222 2.50001 -0 1 68 92 71 
36.4701 2.50001 -0 1 68 92 71 
34.3562 2.50001 -0 1 68 92 71 
33.7828 2.50001 -0 1 68 92 71 
31.8801 2.50001 -0 1 68 92 71 
34.9015 2.50001 -0 1 68 92 71 
35.48 2.50001 -0 1 68 92 71 
34.6483 2.50001 0 1 68 92 71 
35.8386 2.50001 0 1 68 92 71 
36.8734 2.50001 0 1 68 92 71 
36.7104 2.50001 0 1 68 92 71 
35.4062 2.50001 0 1 68 92 71 
36.4716 2.50001 0 1 68 92 71 
38.5146 2.50001 0 1 68 92 71 
35.7884 2.50001 0 1 68 92 71 
37.3532 2.50001 0 1 68 92 71 
38.3388 2.50001 0 1 68 92 71 
38.3172 2.50001 0 1 68 92 71 
36.9223 2.50001 0 1 68 92 71 
39.1029 2.50001 0 1 68 92 71 
39.086 2.50001 0 1 68 92 71 
37.9346 2.50001 0 1 68 92 71 
38.0498 2.50001 0 1 68 92 71 
38.0584 2.50001 0 1 68 92 71 
34.728 2.50001 -0 1 68 92 71 
27.7957 2.50001 -0 1 68 92 71 
29.9711 2.50001 -0 1 68 92 71 
34.4268 2.50001 -0 1 68 92 71 
25.1105 2.50001 -0 1 68 92 71 
30.2642 2.50001 -0 1 68 92 71 
29.9984 2.50001 -0 1 68 92 71 
30.1529 2.50001 -0 1 68 92 71 
34.6619 2.50001 0 1 68 92 71 
29.0591 2.50001 0 1 68 92 71 
30.1396 2.50001 0 1 68 92 71 
27.5971 2.50001 0 1 68 92 71 
28.6568 2.50001 0 1 68 92 71 
28.373 2.50001 0 1 68 92 71 
30.4946 2.50001 0 1 68 92 71 
31.65 2.50001 0 1 68 92 71 
31.3972 2.50001 0 1 68 92 71 
32.5449 2.50001 0 1 68 92 71 
33.9417 2.50001 0 1 68 92 71 
33.7445 2.50001 0 1 68 92 71 
30.8922 2.50001 0 1 68 92 71 
30.4933 2.50001 0 1 68 92 71 
34.0191 2.50001 0 1 68 92 71 
37.2788 2.50001 0 1 68 92 71 
33.7389 2.50001 0 1 68 92 71 
26.5269 2.50001 -0 1 68 92 71 
24.1729 2.50001 -0 1 68 92 71 
21.0937 2.50001 -0 1 68 92 71 
27.0235 2.50001 -0 1 68 92 71 
20.1853 2.50001 -0 1 68 92 71 
23.2849 2.50001 -0 1 68 92 71 
25.4158 2.50001 -0 1 68 92 71 
20.0535 2.50001 -0 1 68 92 71 
25.637 2.50001 -0 1 68 92 71 
31.5433 2.50001 0 1 68 92 71 
36.4019 2.50001 0 1 68 92 71 
23.1844 2.50001 0 1 68 92 71 
29.1194 2.50001 0 1 68 92 71 
25.9776 2.50001 0 1 68 92 71 
21.9849 2.50001 0 1 68 92 71 
28.0648 2.50001 0 1 68 92 71 
23.8074 2.50001 0 1 68 92 71 
31.5666 2.50001 0 1 68 92 71 
25.8688 2.50001 0 1 68 92 71 
23.7172 2.50001 0 1 68 92 71 
26.2365 2.50001 0 1 68 92 71 
23.9855 2.50001 0 1 68 92 71 
31.8949 2.50001 0 1 68 92 71 
37.4307 2.50001 0 1 68 92 71 
28.8591 2.50001 0 1 68 92 71 
29.4704 2.50001 -0 1 68 92 71 
19.4921 2.50001 -0 1 68 92 71 
30.138 2.50001 -0 1 68 92 71 
30.0353 2.50001 -0 1 68 92 71 
37.0606 2.50001 -0 1 68 92 71 
17.971 2.50001 -0 1 68 92 71 
23.748 2.50001 -0 1 68 92 71 
17.299 2.50001 -0 1 68 92 71 
33.5836 2.50001 -0 1 68 92 71 
28.8326 2.50001 0 1 68 92 71 
21.6893 2.50001 0 1 68 92 71 
23.5388 2.50001 0 1 68 92 71 
16.9141 2.50001 0 1 68 92 71 
35.533 2.50001 0 1 68 92 71 
18.4983 2.50001 0 1 68 92 71 
27.8388 2.50001 0 1 68 92 71 
17.1716 2.50001 0 1 68 92 71 
27.3625 2.50001 0 1 68 92 71 
34.097 2.50001 0 1 68 92 71 
22.8968 2.50001 0 1 68 92 71 
28.8321 2.50001 0 1 68 92 71 
30.641 2.50001 0 1 68 92 71 
21.5016 2.50001 0 1 68 92 71 
19.4674 2.50001 0 1 68 92 71 
19.7878 2.50001 0 1 68 92 71 
25.4017 2.50001 0 1 68 92 71 
16.7787 2.50001 -0 1 68 92 71 
21.1098 2.50001 -0 1 68 92 71 
24.572 2.50001 -0 1 68 92 71 
27.2979 2.50001 -0 1 68 92 71 
24.1725 2.50001 -0 1 68 92 71 
14.8144 2.50001 -0 1 68 92 71 
16.3494 2.50001 -0 1 68 92 71 
18.9634 2.50001 -0 1 68 92 71 
31.2852 2.50001 0 1 68 92 71 
29.8281 2.50001 0 1 68 92 71 
20.5013 2.50001 0 1 68 92 71 
19.9886 2.50001 0 1 68 92 71 
16.9468 2.50001 0 1 68 92 71 
28.2498 2.50001 0 1 68 92 71 
30.8581 2.50001 0 1 68 92 71 
18.0588 2.50001 0 1 68 92 71 
29.5477 2.50001 0 1 68 92 71 
15.2775 2.50001 0 1 68 92 71 
29.0662 2.50001 0 1 68 92 71 
17.9821 2.50001 0 1 68 92 71 
25.6555 2.50001 0 1 68 92 71 
18.1778 2.50001 0 1 68 92 71 
