-88.69285088186714 45.4415979380737 10.737446065071238 -0.5000110268592834 -0.866019070148468 0.0
-87.54135384174026 44.776761590968505 11.401681228927819 -0.5000110268592834 -0.866019070148468 0.0
-89.62833531773109 45.98171574423412 14.51547221679871 -0.5000110268592834 -0.866019070148468 0.0
-84.92051793318771 43.26357752615127 17.944567711823854 -0.5000110268592833 -0.866019070148468 0.0
-88.83193573919743 45.521900939525565 18.74581956846971 -0.5000110268592834 -0.866019070148468 0.0
-87.06802317736555 44.503476103546774 14.694612417964152 -0.5000110268592834 -0.866019070148468 0.0
-86.30213669226748 44.06127855087767 15.320710761523369 -0.5000110268592834 -0.866019070148468 0.0
-87.18113022167478 44.568780374031164 6.978989879269817 -0.5000110268592834 -0.866019070148468 0.0
-87.44412422371354 44.72062442185152 16.937134859555666 -0.5000110268592834 -0.8660190701484681 0.0
-87.53542100117704 44.77333616484013 12.246061007118115 -0.5000110268592834 -0.866019070148468 0.0
-88.28249244183348 45.204670532471596 14.732283033304391 -0.5000110268592834 -0.8660190701484679 0.0
-88.96149244958258 45.59670270372804 15.383645449497742 -0.5000110268592834 -0.866019070148468 0.0
-88.38679061361788 45.264888850993074 6.63592453454617 -0.5000110268592834 -0.866019070148468 0.0
-83.2438815527226 42.29554307380977 19.497159099083508 -0.5000110268592834 -0.8660190701484681 0.0
-89.380805052476 45.83879994713225 15.367156492554926 -0.5000110268592834 -0.866019070148468 0.0
-88.38635383657066 45.26463667035651 8.035851038944415 -0.5000110268592834 -0.866019070148468 0.0
-87.05363233896506 44.49516730890766 14.604437309050999 -0.5000110268592834 -0.866019070148468 0.0
-88.27938725180758 45.20287769834181 18.613798745935046 -0.5000110268592834 -0.866019070148468 0.0
-82.0960060517945 41.63279768378732 17.877272381142912 -0.5000110268592834 -0.866019070148468 0.0
-83.84419109232574 42.642141968582585 16.782053620883364 -0.5000110268592834 -0.866019070148468 0.0
-86.3087369044018 44.06508929530217 16.67758850581072 -0.5000110268592834 -0.866019070148468 0.0
-88.0451851970166 45.06765716961634 18.266802642732006 -0.5000110268592834 -0.8660190701484679 0.0
-88.88353732078994 45.551693987892435 10.99612571138892 -0.5000110268592834 -0.8660190701484681 0.0
-87.2199424490436 44.59118927181179 18.325674237854464 -0.5000110268592834 -0.866019070148468 0.0
-89.5801271843938 45.95388196077499 14.638350529640098 -0.5000110268592834 -0.866019070148468 0.0
-87.64077212402455 44.834162422517394 8.944783593956615 -0.5000110268592834 -0.866019070148468 0.0
-85.08940700895826 43.36108849864053 12.943505885655236 -0.5000110268592834 -0.8660190701484679 0.0
-87.01650804116156 44.4737329658912 18.908514837099244 -0.5000110268592834 -0.866019070148468 0.0
-88.21990918605547 45.16853702824929 16.738872051159753 -0.5000110268592834 -0.866019070148468 0.0
-89.03253815537965 45.63772214700376 15.405572458366073 -0.5000110268592834 -0.866019070148468 0.0
-86.91446094129357 44.41481434192197 16.163283155143557 -0.5000110268592834 -0.866019070148468 0.0
-81.18526564897806 41.106966264800015 19.596669981874236 -0.5000110268592834 -0.866019070148468 0.0
-81.13641914576719 41.07876390766673 19.970547917151183 -0.5000110268592834 -0.866019070148468 0.0
-89.63374558768938 45.98483945536024 4.070586320702056 -0.5000110268592834 -0.866019070148468 0.0
-88.50035221288562 45.33045556649262 4.063098323570576 -0.5000110268592834 -0.866019070148468 0.0
-88.08548032183073 45.09092224338902 10.354357602382702 -0.5000110268592834 -0.866019070148468 0.0
-87.39113408130963 44.69002966434826 10.056925686461835 -0.5000110268592834 -0.866019070148468 0.0
-88.82546443765402 45.51816462381721 2.6682012595087823 -0.5000110268592834 -0.866019070148468 0.0
-88.57230052551515 45.37199614513253 8.223790821239241 -0.5000110268592834 -0.866019070148468 0.0
-85.97219620837531 43.870781816253995 19.022717558792337 -0.5000110268592834 -0.8660190701484679 0.0
-81.55848536746042 41.32245099959022 19.912521875111878 -0.5000110268592833 -0.866019070148468 0.0
-86.81399658294202 44.35680954061275 10.784287800718651 -0.5000110268592834 -0.866019070148468 0.0
-88.04415382251402 45.06706168805374 12.487278647460863 -0.5000110268592834 -0.866019070148468 0.0
-88.23434448683571 45.176871493997496 8.548193124669965 -0.5000110268592834 -0.866019070148468 0.0
-86.98157323752916 44.45356276447127 10.134098920872342 -0.5000110268592834 -0.866019070148468 0.0
-88.74321589138046 45.47067703057668 5.495011370253891 -0.5000110268592834 -0.866019070148468 0.0
-86.25871015883573 44.036205505226555 10.083573126928208 -0.5000110268592834 -0.866019070148468 0.0
-88.74245021525988 45.47023495448154 18.476673030362797 -0.5000110268592834 -0.866019070148468 0.0
-89.59895748009687 45.96475395138711 0.9513088655131181 -0.5000110268592834 -0.866019070148468 0.0
-85.8728290344423 43.81341049297859 18.356984663111895 -0.5000110268592834 -0.866019070148468 0.0
-88.86403138677812 45.540431906043 2.354713987549064 -0.5000110268592834 -0.866019070148468 0.0
-84.44305284487349 42.98790495894251 18.447667143522427 -0.5000110268592834 -0.866019070148468 0.0
-86.86565269660474 44.3866340739953 13.416476475824584 -0.5000110268592834 -0.866019070148468 0.0
-88.26435741192138 45.19419996535657 6.338957336781636 -0.5000110268592834 -0.866019070148468 0.0
-88.82232508478675 45.51635206519152 17.1885975492831 -0.5000110268592834 -0.8660190701484681 0.0
-87.66852469445143 44.85018583977547 7.190699071350831 -0.5000110268592834 -0.866019070148468 0.0
-89.38658200653497 45.84213536954336 11.900991468504028 -0.5000110268592834 -0.866019070148468 0.0
-83.80122362992665 42.61733397537867 15.210919904000763 -0.5000110268592836 -0.866019070148468 0.0
-87.80304375569415 44.92785270141391 12.342469845737043 -0.5000110268592834 -0.866019070148468 0.0
-87.28770151634214 44.630311118604425 10.85041956101535 -0.5000110268592834 -0.866019070148468 0.0
-85.57820202859202 43.643302593868 12.678491104718251 -0.5000110268592834 -0.866019070148468 0.0
-82.68814021594483 41.974676386876745 17.363863475250824 -0.5000110268592834 -0.866019070148468 0.0
-87.53499952766624 44.773092819959885 19.60499921335732 -0.5000110268592834 -0.8660190701484681 0.0
-89.60813137141655 45.97005065314245 19.263464292595742 -0.5000110268592834 -0.866019070148468 0.0
-87.85577617227827 44.958298656543725 9.566253319199767 -0.5000110268592834 -0.866019070148468 0.0
-89.18078066823549 45.72331247619982 10.281634066143368 -0.5000110268592834 -0.866019070148468 0.0
-89.35562212963464 45.824260159492475 4.272567832113214 -0.5000110268592834 -0.866019070148468 0.0
-84.48727641091699 43.013438184890774 13.092212592745518 -0.5000110268592834 -0.866019070148468 0.0
-87.18337963052767 44.570079108385464 10.936330910424982 -0.5000110268592834 -0.866019070148468 0.0
-87.79364417612538 44.92242569471998 8.235377625315486 -0.5000110268592834 -0.866019070148468 0.0
-84.89689440453841 43.24993808119778 16.1624527169231 -0.5000110268592834 -0.866019070148468 0.0
-84.54935378194911 43.04927960797454 18.33250302602474 -0.5000110268592834 -0.8660190701484681 0.0
-88.2206048818401 45.168938700010514 6.922969830874993 -0.5000110268592834 -0.866019070148468 0.0
-89.31491962761801 45.80075987958226 17.712641312156368 -0.5000110268592834 -0.866019070148468 0.0
-86.25430121440752 44.033659926379116 19.359880754296505 -0.5000110268592834 -0.8660190701484679 0.0
-85.34547985580551 43.508936500118665 10.834539395202697 -0.5000110268592834 -0.866019070148468 0.0
-85.30644151656045 43.48639705281113 16.65992934093844 -0.5000110268592834 -0.866019070148468 0.0
-86.39785493632264 44.11654310259717 17.99431180753266 -0.5000110268592834 -0.866019070148468 0.0
-84.17389333535228 42.83250115080159 14.601033263657959 -0.5000110268592834 -0.866019070148468 0.0
-89.38336570240097 45.84027838179861 1.6115575476517379 -0.5000110268592834 -0.866019070148468 0.0
-87.81936837719303 44.937277998524536 13.37148031723034 -0.5000110268592834 -0.866019070148468 0.0
-88.89161694089185 45.55635889359985 11.547150943877622 -0.5000110268592834 -0.866019070148468 0.0
-89.60517046012305 45.96834112078599 6.008992672880145 -0.5000110268592834 -0.866019070148468 0.0
-89.17131710564311 45.71784852782197 9.28444619003869 -0.5000110268592834 -0.866019070148468 0.0
-88.75489514924818 45.47742024820303 8.097494269104098 -0.5000110268592834 -0.866019070148468 0.0
-84.71005533255651 43.14206337393905 14.96115709753911 -0.5000110268592834 -0.866019070148468 0.0
-88.3187579893 45.225609061415405 12.74518611802185 -0.5000110268592834 -0.866019070148468 0.0
-86.53209457641496 44.19404863569507 8.545078051427735 -0.5000110268592834 -0.866019070148468 0.0
-86.98703555966804 44.456716528806716 11.269655807323945 -0.5000110268592834 -0.866019070148468 0.0
-89.57989118747734 45.95374570395243 15.41700403544725 -0.5000110268592836 -0.8660190701484681 0.0
-85.18688474539658 43.417368923130894 16.211930233845855 -0.5000110268592834 -0.8660190701484681 0.0
-87.47734411677808 44.73980449056783 7.966037144591092 -0.5000110268592834 -0.866019070148468 0.0
-88.40977721366801 45.27816055441665 11.663586641297837 -0.5000110268592834 -0.866019070148468 0.0
-88.50008571748637 45.33030170085374 3.886437111248651 -0.5000110268592834 -0.866019070148468 0.0
-87.03402509315836 44.48384673297507 13.297604507886003 -0.5000110268592834 -0.866019070148468 0.0
-87.12697287917541 44.53751171375546 19.27379700710623 -0.5000110268592834 -0.866019070148468 0.0
-89.36682473325604 45.83072817270501 11.329344957353022 -0.5000110268592834 -0.866019070148468 0.0
-89.2135326343952 45.74222237938095 14.507696305050924 -0.5000110268592834 -0.866019070148468 0.0
-87.94872629152985 45.011964984456654 11.36969267018261 -0.5000110268592834 -0.866019070148468 0.0
-89.11595839415173 45.68588623678184 5.772196852852871 -0.5000110268592834 -0.866019070148468 0.0
-85.44795102567807 43.56809996809785 16.639361636857394 -0.5000110268592834 -0.866019070148468 0.0
-85.53364370387865 43.617576089323705 14.996493283058212 -0.5000110268592834 -0.866019070148468 0.0
-88.92697887559464 45.576775706387984 12.685611614710703 -0.5000110268592834 -0.866019070148468 0.0
-88.39390128637584 45.26899431851676 9.646684899078139 -0.5000110268592834 -0.8660190701484679 0.0
-89.58097141988117 45.954369394453025 12.501860587415798 -0.5000110268592834 -0.866019070148468 0.0
-86.77670558783517 44.335278952080785 11.598098205269274 -0.5000110268592834 -0.866019070148468 0.0
-86.67097632131276 44.274234366738966 12.654202035871187 -0.5000110268592834 -0.866019070148468 0.0
-87.61657860285887 44.82019388271669 13.143335056201137 -0.5000110268592834 -0.866019070148468 0.0
-84.96370247728211 43.28851085515398 14.61825710288198 -0.5000110268592834 -0.866019070148468 0.0
-86.01566600178461 43.895879838786875 10.192243988486307 -0.5000110268592834 -0.866019070148468 0.0
-83.85964087975582 42.65106216540518 18.986226992839008 -0.5000110268592834 -0.866019070148468 0.0
-85.76298798157076 43.7499918980465 19.6597864562454 -0.5000110268592834 -0.8660190701484681 0.0
-88.54813608093701 45.35804439319283 6.48356381738037 -0.5000110268592834 -0.866019070148468 0.0
-84.87551751326811 43.23759577044111 18.62277743575283 -0.5000110268592834 -0.866019070148468 0.0
-89.48910212270928 45.90132709750006 14.197813997452874 -0.5000110268592833 -0.866019070148468 0.0
-88.9435639652748 45.58635138922097 3.233586487956691 -0.5000110268592834 -0.866019070148468 0.0
-86.96059660169462 44.44145154797934 18.324068907583655 -0.5000110268592834 -0.8660190701484678 0.0
-86.25262082981321 44.03268972783194 19.36911341980107 -0.5000110268592834 -0.866019070148468 0.0
-87.28082607472862 44.62634146577183 7.388653080522812 -0.5000110268592834 -0.866019070148468 0.0
-84.23700788860889 42.86894140863471 17.53384989330392 -0.5000110268592834 -0.8660190701484681 0.0
-86.4234760326154 44.13133587711114 10.141491840476471 -0.5000110268592834 -0.866019070148468 0.0
-89.61144309273669 45.97196273161803 0.6095527599961559 -0.5000110268592834 -0.866019070148468 0.0
-89.01805869290375 45.62936218375151 12.775564540270203 -0.5000110268592834 -0.866019070148468 0.0
-89.0566570368902 45.651647592333575 10.187072962074708 -0.5000110268592834 -0.866019070148468 0.0
-82.48632692715304 41.85815606155933 19.78858339292695 -0.5000110268592834 -0.866019070148468 0.0
-86.51713459745022 44.18541123809777 16.35723755729058 -0.5000110268592834 -0.8660190701484679 0.0
-86.79928120571854 44.348313367979564 19.60249822148657 -0.5000110268592834 -0.866019070148468 0.0
-83.02649867376051 42.17003338152568 17.38878917421063 -0.5000110268592834 -0.866019070148468 0.0
-85.4612524130911 43.57577974973075 13.54768523343618 -0.5000110268592834 -0.866019070148468 0.0
-88.79626728395169 45.50130715190293 10.52752174386082 -0.5000110268592834 -0.866019070148468 0.0
-84.27802559485318 42.89262367705207 14.113282515034728 -0.5000110268592834 -0.866019070148468 0.0
-89.22407689182737 45.74831028525465 2.7223930627365887 -0.5000110268592834 -0.866019070148468 0.0
-89.08522303129234 45.66814065372056 15.052168431880755 -0.5000110268592834 -0.866019070148468 0.0
-86.81559719214529 44.35773367948482 15.033377232812118 -0.5000110268592834 -0.8660190701484679 0.0
-84.99277505614123 43.30529640166959 11.022824975635157 -0.5000110268592834 -0.866019070148468 0.0
-86.61007188655174 44.23907015830594 12.724311453219476 -0.5000110268592834 -0.866019070148468 0.0
-87.43798791925269 44.71708152239081 16.26881657891201 -0.5000110268592834 -0.866019070148468 0.0
-86.54996344384595 44.204365529387154 16.001468134925965 -0.5000110268592834 -0.866019070148468 0.0
-86.47188495812765 44.159285591338204 12.055134094725211 -0.5000110268592834 -0.866019070148468 0.0
-88.54521260056384 45.35635647221308 12.06033151194985 -0.5000110268592834 -0.866019070148468 0.0
-88.65227016868872 45.418167975014924 11.39317553175705 -0.5000110268592834 -0.866019070148468 0.0
-84.16909935730774 42.82973326626505 15.483807556480372 -0.5000110268592833 -0.8660190701484679 0.0
-87.97315020804282 45.02606654691895 17.01470250591533 -0.5000110268592834 -0.866019070148468 0.0
-84.5147923759497 43.02932499401136 15.398689445858702 -0.5000110268592834 -0.866019070148468 0.0
-82.72185653255887 41.99414307414939 16.996509532854652 -0.5000110268592834 -0.8660190701484681 0.0
-89.40926470619749 45.85523161092359 1.6656693270760705 -0.5000110268592834 -0.866019070148468 0.0
-82.63338116745146 41.94306032143964 16.254487686172425 -0.5000110268592834 -0.866019070148468 0.0
-87.71364857239175 44.8762388760679 8.196331597682688 -0.5000110268592834 -0.8660190701484681 0.0
-82.71385162695388 41.98952130612405 16.30159146206966 -0.5000110268592834 -0.866019070148468 0.0
-87.21554474831149 44.588650184703 18.34172520303206 -0.5000110268592834 -0.866019070148468 0.0
-88.15068810580105 45.1285710634788 17.67454713526508 -0.5000110268592834 -0.8660190701484679 0.0
-85.03591080289539 43.33020155670022 17.880803910625772 -0.5000110268592834 -0.866019070148468 0.0
-85.921437113867 43.841475192094926 12.680224972478998 -0.5000110268592834 -0.866019070148468 0.0
-82.90944758302697 42.102451948941706 18.348058700384726 -0.5000110268592834 -0.866019070148468 0.0
-85.30157384704447 43.483586621253636 13.61336382127313 -0.5000110268592834 -0.866019070148468 0.0
-85.5445918452948 43.623897184466 17.458881251938237 -0.5000110268592834 -0.866019070148468 0.0
-86.89019727135585 44.40080530053791 8.910855280859874 -0.5000110268592834 -0.866019070148468 0.0
-83.66272141685315 42.53736737347092 19.675460600588718 -0.5000110268592834 -0.8660190701484681 0.0
-82.08569972511259 41.62684715126791 18.416120092262897 -0.5000110268592834 -0.866019070148468 0.0
-83.21069244911274 42.27638078190735 17.297591063588325 -0.5000110268592834 -0.866019070148468 0.0
-87.92650660750118 44.999136073006035 8.925328546523556 -0.5000110268592834 -0.8660190701484681 0.0
-85.05112891343262 43.338987990939174 11.116972432099054 -0.5000110268592834 -0.866019070148468 0.0
-87.56949984205335 44.7930121616445 19.31688557093359 -0.5000110268592834 -0.8660190701484679 0.0
-87.71680178321047 44.87805943581692 18.14653259536278 -0.5000110268592834 -0.8660190701484679 0.0
-88.36066222259973 45.249803181264966 7.525781753822562 -0.5000110268592834 -0.866019070148468 0.0
-86.55046726386696 44.20465641842176 11.438026491093527 -0.5000110268592834 -0.866019070148468 0.0
-87.10478128966292 44.52469902315026 11.061746718539778 -0.5000110268592834 -0.866019070148468 0.0
-88.3729028457663 45.256870512668144 18.65460165387382 -0.5000110268592834 -0.8660190701484681 0.0
-84.33803079078353 42.92726869469388 17.647009475058553 -0.5000110268592834 -0.8660190701484679 0.0
-87.06142901485592 44.499668851975684 11.76049860753215 -0.5000110268592834 -0.866019070148468 0.0
-84.63388463714165 43.098084930980576 14.409812204572098 -0.5000110268592834 -0.8660190701484681 0.0
-86.56956636007564 44.215683605565026 7.4586298467706165 -0.5000110268592834 -0.8660190701484679 0.0
-89.09465633631362 45.67358713237654 13.14082633111852 -0.5000110268592834 -0.866019070148468 0.0
-86.04695820885743 43.913946925299626 13.114260037608368 -0.5000110268592834 -0.866019070148468 0.0
-83.60220950638094 42.50242979559383 16.06037473071855 -0.5000110268592834 -0.8660190701484679 0.0
-85.23277592214933 43.44386497240714 10.785348224105405 -0.5000110268592834 -0.866019070148468 0.0
-82.48058336972362 41.85483992125875 17.505856589941338 -0.5000110268592834 -0.8660190701484681 0.0
-88.46758423825254 45.311536420547895 13.656412373952467 -0.5000110268592836 -0.8660190701484681 0.0
-85.864355619366 43.8085182230634 17.55811364679154 -0.5000110268592834 -0.866019070148468 0.0
-87.74292413852035 44.89314162072648 11.831612968667297 -0.5000110268592834 -0.866019070148468 0.0
-87.34132402530378 44.6612709836656 19.549284281039697 -0.5000110268592834 -0.866019070148468 0.0
-83.62053550180846 42.51301061988822 14.247786500506443 -0.5000110268592834 -0.866019070148468 0.0
-89.15403826194931 45.70787229434218 6.537926615592971 -0.5000110268592834 -0.866019070148468 0.0
-84.55839017509221 43.05449692282548 19.369068789778176 -0.5000110268592834 -0.866019070148468 0.0
-87.71090992618389 44.87465767222855 10.597096494582654 -0.5000110268592834 -0.866019070148468 0.0
-88.5156013857609 45.33925993509931 18.436527345621602 -0.5000110268592834 -0.866019070148468 0.0
-86.5461341322459 44.20215461138442 16.164352593787758 -0.5000110268592834 -0.8660190701484679 0.0
-87.19518566353196 44.5768955217872 13.629548193590672 -0.5000110268592834 -0.866019070148468 0.0
-87.92967358632995 45.00096458194918 5.521160004020088 -0.5000110268592834 -0.866019070148468 0.0
-85.26150714350408 43.46045343037769 19.804523672643107 -0.5000110268592834 -0.8660190701484679 0.0
-86.30144625030375 44.06087991249904 19.53380193590043 -0.5000110268592834 -0.866019070148468 0.0
-87.31080557589519 44.643650639264294 9.413742704069263 -0.5000110268592834 -0.8660190701484679 0.0
-85.55343270737575 43.62900160614172 13.338146125762865 -0.5000110268592834 -0.866019070148468 0.0
-83.66155609136773 42.536694553036384 15.921305836671621 -0.5000110268592834 -0.866019070148468 0.0
-87.38284164062148 44.68524188306564 13.282843873474299 -0.5000110268592834 -0.866019070148468 0.0
-88.47655902254729 45.316718164485266 2.810245873991741 -0.5000110268592834 -0.866019070148468 0.0
-88.7324060994434 45.464435813852745 6.453739343834978 -0.5000110268592834 -0.866019070148468 0.0
-86.40384862802486 44.12000366216278 19.881376016709627 -0.5000110268592834 -0.8660190701484681 0.0
-86.42629802064916 44.13296519976728 18.291975535698565 -0.5000110268592834 -0.866019070148468 0.0
-88.4197761872586 45.28393363141565 4.995596615041956 -0.5000110268592834 -0.866019070148468 0.0
-89.56761844086411 45.94665982553248 19.54012344514437 -0.5000110268592834 -0.866019070148468 0.0
-89.63413512297235 45.98506436016291 16.623120731345136 -0.5000110268592834 -0.866019070148468 0.0
-86.72281829499326 44.30416620955522 14.273742734543095 -0.5000110268592834 -0.866019070148468 0.0
-86.35259850368632 44.09041353360268 10.719827053284195 -0.5000110268592834 -0.866019070148468 0.0
-84.61719718802141 43.08845014918869 18.114609781564447 -0.5000110268592834 -0.866019070148468 0.0
-86.51323187334305 44.183157934138876 8.256612245646966 -0.5000110268592834 -0.866019070148468 0.0
-85.72694456254966 43.72918161872826 9.122478532707845 -0.5000110268592834 -0.866019070148468 0.0
-84.11165203160999 42.79656507838709 17.397870146248017 -0.5000110268592834 -0.8660190701484679 0.0
-85.97652949566246 43.873283713167794 11.499522993226837 -0.5000110268592834 -0.866019070148468 0.0
-87.38234353843407 44.684954295319244 8.647206892846107 -0.5000110268592834 -0.866019070148468 0.0
-83.62181795900429 42.51375106830248 18.898247561039327 -0.5000110268592834 -0.8660190701484679 0.0
-89.16050883202344 45.71160818772433 8.999951128215727 -0.5000110268592834 -0.866019070148468 0.0
-88.00627704378746 45.04519288741322 18.69399182007926 -0.5000110268592834 -0.8660190701484679 0.0
-89.55990311622989 45.9422052519923 6.7213639271454495 -0.5000110268592834 -0.866019070148468 0.0
-85.60419368784135 43.65830931919021 15.63235453387281 -0.5000110268592834 -0.866019070148468 0.0
-82.86690873129245 42.07789142137483 17.052648392834374 -0.5000110268592834 -0.866019070148468 0.0
-87.5226712758579 44.76597489467407 5.673481850407061 -0.5000110268592834 -0.866019070148468 0.0
-84.23722533748965 42.86906695643425 19.692990429579964 -0.5000110268592834 -0.8660190701484681 0.0
-88.82012643865208 45.51508263955357 6.623773721615997 -0.5000110268592834 -0.866019070148468 0.0
-88.9354746525249 45.581680887298845 6.212404155983572 -0.5000110268592834 -0.866019070148468 0.0
-84.39125565042126 42.9579989701732 19.473795280577065 -0.5000110268592834 -0.866019070148468 0.0
-83.8657859410135 42.654610120751066 19.641436122937236 -0.5000110268592834 -0.866019070148468 0.0
-89.1699613391576 45.71706575304587 6.9404842141114775 -0.5000110268592834 -0.866019070148468 0.0
-82.05158474204809 41.60715028715816 19.29950102590298 -0.5000110268592834 -0.866019070148468 0.0
-84.27379466933425 42.89018088044136 13.68905399244272 -0.5000110268592834 -0.866019070148468 0.0
-87.78746668107112 44.91885901317151 12.300951691573868 -0.5000110268592834 -0.866019070148468 0.0
-87.4196442057777 44.70649046828119 15.18654215588199 -0.5000110268592834 -0.8660190701484681 0.0
-85.70837860280348 43.71846224696435 13.503677290007094 -0.5000110268592834 -0.866019070148468 0.0
-85.26905942046326 43.46481386557717 18.170761694266446 -0.5000110268592834 -0.866019070148468 0.0
-88.45686531076622 45.30534766595578 7.381057409912954 -0.5000110268592834 -0.866019070148468 0.0
-88.91523953603843 45.56999779957972 10.404956214597506 -0.5000110268592834 -0.866019070148468 0.0
-85.43823225693008 43.56248867211738 17.837567921554975 -0.5000110268592834 -0.866019070148468 0.0
-86.52602042206411 44.19054161965451 16.500841020072933 -0.5000110268592834 -0.866019070148468 0.0
-88.91986066362217 45.572665885970935 18.875089724083367 -0.5000110268592834 -0.866019070148468 0.0
-81.88588555639912 41.511481051835574 19.99897807020381 -0.5000110268592834 -0.866019070148468 0.0
-88.94353112126738 45.58633242617621 9.330448814545518 -0.5000110268592834 -0.866019070148468 0.0
-85.86179038217622 43.807037139861905 9.203668278811598 -0.5000110268592834 -0.866019070148468 0.0
-83.08703331631061 42.20498408415353 19.564316066635676 -0.5000110268592834 -0.866019070148468 0.0
-88.99574211165586 45.61647732704786 8.80380212599165 -0.5000110268592834 -0.8660190701484681 0.0
-87.40800007552926 44.69976753218164 10.278860326396007 -0.5000110268592834 -0.866019070148468 0.0
-85.79933236132382 43.77097594214805 18.414991879645015 -0.5000110268592834 -0.8660190701484681 0.0
-88.2446775017648 45.18283743542908 7.190869878781752 -0.5000110268592834 -0.866019070148468 0.0
-88.77248505609543 45.487576079270525 3.696270307433177 -0.5000110268592834 -0.866019070148468 0.0
-86.39130693173934 44.11276250108776 19.500801732090743 -0.5000110268592834 -0.866019070148468 0.0
-87.10035951784558 44.522146038192126 15.302552628473208 -0.5000110268592834 -0.866019070148468 0.0
-86.97100316099238 44.44745995149958 8.407685621260866 -0.5000110268592834 -0.866019070148468 0.0
-86.93855482812722 44.42872535615113 15.6772802906759 -0.5000110268592834 -0.8660190701484681 0.0
-85.75158095950557 43.743405860378246 19.270005421715787 -0.5000110268592834 -0.8660190701484681 0.0
-89.51223686527904 45.91468433352004 11.140869510900252 -0.5000110268592834 -0.866019070148468 0.0
-83.48125691016156 42.432595762642656 18.945810680064106 -0.5000110268592834 -0.8660190701484681 0.0
-85.22336343450402 43.43843051301627 18.847982390930575 -0.5000110268592834 -0.866019070148468 0.0
-87.91883854545401 44.99470878732212 6.134369356141022 -0.5000110268592834 -0.866019070148468 0.0
-84.83719569559895 43.21547001901861 13.54416433770858 -0.5000110268592834 -0.8660190701484679 0.0
-88.95961310022366 45.595617629499294 5.465260989181871 -0.5000110268592834 -0.866019070148468 0.0
-85.42895973560599 43.55713502465609 10.823630488430517 -0.5000110268592834 -0.866019070148468 0.0
-88.78664240752391 45.49575006624608 11.06934722034531 -0.5000110268592834 -0.866019070148468 0.0
-84.93712159961711 43.27316393458552 18.253849821997736 -0.5000110268592834 -0.866019070148468 0.0
-85.16525002284035 43.40487774910813 16.028626806784843 -0.5000110268592834 -0.8660190701484681 0.0
-85.28835924316571 43.47595694556621 19.773309719955442 -0.5000110268592836 -0.866019070148468 0.0
-86.57133297960289 44.2167035933134 11.089538953541268 -0.5000110268592834 -0.866019070148468 0.0
-83.0891817586915 42.2062245238027 17.376123266050065 -0.5000110268592834 -0.866019070148468 0.0
-86.79253732777576 44.34441967566376 10.20826286565515 -0.5000110268592834 -0.866019070148468 0.0
-87.40493653037487 44.69799874242476 19.00254157085856 -0.5000110268592834 -0.866019070148468 0.0
-83.53340933178991 42.46270684784724 15.542830511604615 -0.5000110268592834 -0.866019070148468 0.0
-85.0626671997231 43.34564981623433 19.360498271598715 -0.5000110268592833 -0.8660190701484679 0.0
-87.37041814684194 44.67806896821234 9.296566748006077 -0.5000110268592834 -0.866019070148468 0.0
-86.7472278811978 44.31825949817088 19.960802056003168 -0.5000110268592836 -0.8660190701484681 0.0
-89.12771214712177 45.69267246541905 15.054954274797202 -0.5000110268592834 -0.866019070148468 0.0
-86.02054912133144 43.898699190681725 12.260156592137688 -0.5000110268592834 -0.866019070148468 0.0
-88.71048330453853 45.451778316373385 18.25332983781316 -0.5000110268592834 -0.8660190701484679 0.0
-85.10859518700444 43.372167118693625 12.911303317962629 -0.5000110268592834 -0.866019070148468 0.0
-86.49300913286797 44.17148199191985 14.431518976104826 -0.5000110268592834 -0.8660190701484679 0.0
-89.3148352595071 45.80071116822242 18.15213958162953 -0.5000110268592834 -0.866019070148468 0.0
-86.24063925170229 44.0257719604854 18.54654609241762 -0.5000110268592834 -0.866019070148468 0.0
-86.73391426402264 44.31057265547737 14.374186917097656 -0.5000110268592834 -0.866019070148468 0.0
-87.79503396084964 44.923228110503196 17.396737878782567 -0.5000110268592834 -0.866019070148468 0.0
-82.95317590152162 42.12769923531757 17.15651534381782 -0.5000110268592834 -0.866019070148468 0.0
-87.17201118467482 44.5635153433477 18.80665811421367 -0.5000110268592834 -0.866019070148468 0.0
-87.69682466375451 44.86652530705935 8.927520082777672 -0.5000110268592834 -0.866019070148468 0.0
-88.75523131852601 45.47761434123747 17.421344677092236 -0.5000110268592834 -0.8660190701484679 0.0
-88.24577669641147 45.1834720741022 3.597359180266034 -0.5000110268592834 -0.866019070148468 0.0
-88.85715581140235 45.53646217598049 15.616048709285028 -0.5000110268592834 -0.866019070148468 0.0
-88.40620621213571 45.27609877611283 17.376477662563303 -0.5000110268592834 -0.866019070148468 0.0
-87.23959067422948 44.602533507884026 18.28731783684603 -0.5000110268592834 -0.8660190701484681 0.0
-88.0363314149368 45.06254528836014 11.850454388414482 -0.5000110268592834 -0.866019070148468 0.0
-87.80678513226013 44.930012848633226 5.648625090804888 -0.5000110268592834 -0.866019070148468 0.0
-85.5975905922267 43.65449690993943 17.801654079051595 -0.5000110268592834 -0.866019070148468 0.0
-88.01559294374617 45.05057158026498 3.963956749083501 -0.5000110268592834 -0.866019070148468 0.0
-86.56786421113969 44.21470084100604 10.974251632226164 -0.5000110268592834 -0.866019070148468 0.0
-86.7233835919058 44.3044925933159 6.923950859053163 -0.5000110268592834 -0.866019070148468 0.0
-86.3873262323151 44.11046417675699 11.639552212594605 -0.5000110268592834 -0.866019070148468 0.0
-87.32045376934659 44.6492211874002 14.917136327682789 -0.5000110268592834 -0.866019070148468 0.0
-87.6268702569828 44.82613594378587 5.659026217339529 -0.5000110268592834 -0.866019070148468 0.0
-85.26674170974026 43.46347569597966 14.776005829867827 -0.5000110268592834 -0.866019070148468 0.0
-86.55027060167038 44.204542872166904 10.778904565062511 -0.5000110268592834 -0.866019070148468 0.0
-88.53575910577405 45.35089833665181 2.8515295127508624 -0.5000110268592834 -0.866019070148468 0.0
-86.0322431642268 43.90545094469456 13.881573613552938 -0.5000110268592834 -0.866019070148468 0.0
-84.67519241770049 43.121934678723505 17.87335510277655 -0.5000110268592834 -0.866019070148468 0.0
-82.02750697509312 41.59324858001436 17.673826107760636 -0.5000110268592834 -0.866019070148468 0.0
-86.08290353639337 43.934700569835144 11.399196619573903 -0.5000110268592834 -0.866019070148468 0.0
-87.29801069489871 44.636263297702044 16.14253007064695 -0.5000110268592834 -0.866019070148468 0.0
-84.75823321443838 43.16987969120729 15.466319941094817 -0.5000110268592834 -0.866019070148468 0.0
-82.32318303930859 41.76396217076558 19.319588696107573 -0.5000110268592834 -0.8660190701484681 0.0
-86.18198432174273 43.99190654180423 16.446801716324288 -0.5000110268592834 -0.866019070148468 0.0
-87.87767945823225 44.97094489019939 13.512329469746636 -0.5000110268592834 -0.866019070148468 0.0
-85.03016672796855 43.32688511761374 13.187083500416303 -0.5000110268592834 -0.8660190701484681 0.0
-89.00737956141741 45.62319640605499 8.69256958080597 -0.5000110268592834 -0.866019070148468 0.0
-85.22743137610586 43.44077920809802 17.094986909732384 -0.5000110268592834 -0.866019070148468 0.0
-83.97874671293529 42.719829938391584 18.653186471484574 -0.5000110268592834 -0.866019070148468 0.0
-83.49960767210617 42.44319088630576 18.54300194581094 -0.5000110268592834 -0.866019070148468 0.0
-85.21298699697815 43.43243950081192 19.571868054727606 -0.5000110268592834 -0.866019070148468 0.0
-85.26047022713544 43.459854749124716 13.216176134972503 -0.5000110268592834 -0.866019070148468 0.0
-82.83459579003525 42.05923499666765 16.58353101156695 -0.5000110268592834 -0.866019070148468 0.0
-89.38225879930775 45.83963929252313 12.859766227154918 -0.5000110268592834 -0.866019070148468 0.0
-87.92811598370871 45.0000652736567 4.729372378726495 -0.5000110268592834 -0.866019070148468 0.0
-89.15871399680965 45.71057190917075 11.593620732454074 -0.5000110268592834 -0.866019070148468 0.0
-87.28555431605429 44.62907139609874 14.009477530920119 -0.5000110268592834 -0.866019070148468 0.0
-86.21988215279987 44.01378749736489 13.190375834213782 -0.5000110268592834 -0.866019070148468 0.0
-88.96162062612687 45.59677670862994 14.179193498433001 -0.5000110268592834 -0.866019070148468 0.0
-84.17739718616285 42.83452415849723 19.12873487515375 -0.5000110268592834 -0.866019070148468 0.0
-81.85477109447473 41.49351658949907 18.302702012435056 -0.5000110268592834 -0.866019070148468 0.0
-89.37358454025362 45.83463106193076 5.645166753552958 -0.5000110268592834 -0.866019070148468 0.0
-87.6212325303109 44.82288090666819 16.05337867395527 -0.5000110268592834 -0.866019070148468 0.0
-86.99966612195904 44.46400899817729 8.333751570427077 -0.5000110268592834 -0.866019070148468 0.0
-85.41454371019955 43.54881168787189 16.108362470845876 -0.5000110268592834 -0.866019070148468 0.0
-89.18456982196778 45.725500208376474 11.54202437069662 -0.5000110268592834 -0.866019070148468 0.0
-87.61703241530046 44.82045589902713 16.6255410436942 -0.5000110268592834 -0.866019070148468 0.0
-89.39521538160902 45.84711999507638 11.16874578429711 -0.5000110268592834 -0.866019070148468 0.0
-88.3146871812622 45.22325871134822 8.513078049985012 -0.5000110268592834 -0.866019070148468 0.0
-85.22136808051192 43.43727846154495 10.657763745331534 -0.5000110268592834 -0.866019070148468 0.0
-88.93849401705629 45.58342416862365 13.612454119633696 -0.5000110268592834 -0.866019070148468 0.0
-89.11035229432576 45.682649459960096 16.086708322967837 -0.5000110268592834 -0.866019070148468 0.0
-86.30377561666535 44.0622248116772 17.317015449517477 -0.5000110268592834 -0.866019070148468 0.0
-89.29726005014234 45.790563822995736 9.581326171255085 -0.5000110268592834 -0.866019070148468 0.0
-84.59826238209621 43.07751781782721 12.040461782978241 -0.5000110268592834 -0.866019070148468 0.0
-87.03859853392657 44.48648728657449 7.267729155319764 -0.5000110268592834 -0.866019070148468 0.0
-85.27991324967343 43.47108050796767 14.970591762651193 -0.5000110268592834 -0.866019070148468 0.0
-88.30599843611216 45.21824211696267 5.304359782197025 -0.5000110268592834 -0.8660190701484681 0.0
-86.46859177682245 44.15738421725473 16.663129991299364 -0.5000110268592834 -0.866019070148468 0.0
-87.71591154851279 44.8775454437146 4.756156666479766 -0.5000110268592834 -0.866019070148468 0.0
-87.30948458791983 44.64288794445093 14.065951647699244 -0.5000110268592834 -0.866019070148468 0.0
-84.7834300429472 43.18442750752004 17.414515961377653 -0.5000110268592834 -0.866019070148468 0.0
-87.42109657191031 44.707329016501994 5.758171442376684 -0.5000110268592834 -0.866019070148468 0.0
-83.61658575168383 42.510730164660515 17.03977921169396 -0.5000110268592836 -0.866019070148468 0.0
-86.47868037206734 44.163209038835944 11.431276737228448 -0.5000110268592834 -0.866019070148468 0.0
-84.48943011221871 43.01468166086708 15.840760130746652 -0.5000110268592834 -0.866019070148468 0.0
-87.9052697329727 44.98687460329013 9.390355194592061 -0.5000110268592834 -0.866019070148468 0.0
-83.36739457070391 42.36685540969348 15.477429928255054 -0.5000110268592834 -0.866019070148468 0.0
-82.80665082641465 42.043100497935924 19.067674355711446 -0.5000110268592834 -0.866019070148468 0.0
-88.41467245630237 45.2809869057817 17.158583049327525 -0.5000110268592834 -0.866019070148468 0.0
-87.30818606387308 44.64213821956777 16.23519707461586 -0.5000110268592834 -0.866019070148468 0.0
-84.21411867010498 42.855725930098565 15.898242648698625 -0.5000110268592834 -0.866019070148468 0.0
-86.94074542696423 44.429990135545275 15.711775280759579 -0.5000110268592834 -0.8660190701484681 0.0
-86.40957544463119 44.12331013686519 13.876061906728587 -0.5000110268592834 -0.866019070148468 0.0
-86.13818754948196 43.96661973248543 15.768851993383535 -0.5000110268592834 -0.866019070148468 0.0
-85.22255604531655 43.43796435317445 17.86583561611142 -0.5000110268592834 -0.866019070148468 0.0
-88.83910398132984 45.52603964570404 2.889382536498446 -0.5000110268592834 -0.866019070148468 0.0
-86.628759799894 44.24985994204705 14.418491086373056 -0.5000110268592834 -0.866019070148468 0.0
-88.69819303928827 45.44468232327119 4.59257282815974 -0.5000110268592834 -0.866019070148468 0.0
-85.45436149563471 43.571801161657795 14.21997169879565 -0.5000110268592834 -0.866019070148468 0.0
-86.85391061397448 44.379854583426706 9.906676942180754 -0.5000110268592834 -0.866019070148468 0.0
-88.81243986031392 45.51064466317499 19.94716508156154 -0.5000110268592834 -0.866019070148468 0.0
-88.63067886554484 45.40570186992635 6.439245500541082 -0.5000110268592834 -0.866019070148468 0.0
-88.944763944302 45.58704421746563 17.696571341053275 -0.5000110268592834 -0.8660190701484679 0.0
-88.4950037790237 45.32736755748559 3.151338351021768 -0.5000110268592834 -0.866019070148468 0.0
-83.59234990786543 42.49673718915841 15.256364007425239 -0.5000110268592834 -0.866019070148468 0.0
-86.77151101867622 44.33227977946976 16.579366180595947 -0.5000110268592834 -0.866019070148468 0.0
-89.5119500313149 45.91451872506575 13.878687747977072 -0.5000110268592834 -0.866019070148468 0.0
-86.29762993290825 44.05867649692071 12.864508397868926 -0.5000110268592834 -0.866019070148468 0.0
-85.38159068803678 43.52978570159723 15.373289114526314 -0.5000110268592834 -0.866019070148468 0.0
-84.6570802454671 43.11147730887698 18.914339115437716 -0.5000110268592834 -0.8660190701484679 0.0
-89.44743837869353 45.87727182821765 16.797676786896123 -0.5000110268592834 -0.866019070148468 0.0
-88.9999813336932 45.6189249137942 4.017458456028892 -0.5000110268592834 -0.866019070148468 0.0
-86.3361321548122 44.080906407788085 17.457195061442636 -0.5000110268592834 -0.866019070148468 0.0
-86.63431399226431 44.25306674921887 17.93989343241392 -0.5000110268592834 -0.866019070148468 0.0
-87.3385205883579 44.65965237179471 18.054294777385746 -0.5000110268592834 -0.866019070148468 0.0
-86.064969305047 43.924345937177875 15.748140476632612 -0.5000110268592834 -0.866019070148468 0.0
-87.50176925107569 44.75390675613871 19.153502964360257 -0.5000110268592834 -0.8660190701484681 0.0
-86.86601545338132 44.386843517773116 9.712233366481517 -0.5000110268592834 -0.866019070148468 0.0
-88.63605951216434 45.408808477515336 4.474134273722156 -0.5000110268592834 -0.866019070148468 0.0
-88.44464324564868 45.298291049356976 17.459397705654894 -0.5000110268592834 -0.8660190701484679 0.0
-88.1942585473492 45.153727196921785 5.245854333038356 -0.5000110268592834 -0.866019070148468 0.0
-89.49365616955201 45.903956453687655 10.678235225725881 -0.5000110268592834 -0.866019070148468 0.0
-89.2363091376703 45.755372779867926 10.888369400586525 -0.5000110268592834 -0.866019070148468 0.0
-88.14112782713204 45.12305127443365 11.230761310113667 -0.5000110268592834 -0.866019070148468 0.0
-89.08805879662667 45.669777930934856 14.201656095017805 -0.5000110268592834 -0.866019070148468 0.0
-89.54361648725684 45.93280189051087 17.683292937757017 -0.5000110268592834 -0.866019070148468 0.0
-85.63011365073868 43.67327464940753 16.71837899200694 -0.5000110268592834 -0.866019070148468 0.0
-88.86138503756636 45.53890399143984 8.113679275112851 -0.5000110268592834 -0.866019070148468 0.0
-89.63689534354926 45.986658020330154 1.6628681403882408 -0.5000110268592834 -0.866019070148468 0.0
-89.19846958295577 45.73352547114213 15.66293892209112 -0.5000110268592834 -0.8660190701484679 0.0
-87.34511514009537 44.66345984809309 9.084699382049546 -0.5000110268592834 -0.866019070148468 0.0
-87.18595806185388 44.57156780944544 12.353505449985512 -0.5000110268592834 -0.866019070148468 0.0
-88.972051436811 45.60279911409944 15.688257235151223 -0.5000110268592834 -0.866019070148468 0.0
-85.80201041009471 43.77252215902935 18.981577481159 -0.5000110268592833 -0.866019070148468 0.0
-81.0798282592043 41.04609019944967 19.93594429993076 -0.5000110268592833 -0.8660190701484679 0.0
-89.10658222854987 45.68047274853882 10.701749352149495 -0.5000110268592834 -0.866019070148468 0.0
-85.68043281061203 43.7023272698432 19.372228621906608 -0.5000110268592834 -0.866019070148468 0.0
-89.05329525316228 45.64970660947775 16.236594806465394 -0.5000110268592834 -0.866019070148468 0.0
-87.31126508033162 44.643915941944506 17.124473818781542 -0.5000110268592834 -0.8660190701484681 0.0
-87.99067704294009 45.03618596232633 11.070576402175178 -0.5000110268592834 -0.866019070148468 0.0
-87.94416220630359 45.009329832438056 9.60342726911082 -0.5000110268592834 -0.866019070148468 0.0
-86.620302499173 44.24497697602821 19.807952871189748 -0.5000110268592834 -0.866019070148468 0.0
-88.74492129998279 45.47166167715933 18.801095468335046 -0.5000110268592834 -0.866019070148468 0.0
-89.33585935022734 45.81284978359751 0.9118301708771414 -0.5000110268592834 -0.866019070148468 0.0
-87.74044226284317 44.8917086677082 9.713611284452874 -0.5000110268592834 -0.866019070148468 0.0
-87.05045458328317 44.49333257776558 9.97766430743727 -0.5000110268592834 -0.866019070148468 0.0
-87.57236178443245 44.79466455261959 11.30280627071659 -0.5000110268592834 -0.866019070148468 0.0
-86.27478688578475 44.04548767621417 19.34185984888242 -0.5000110268592834 -0.8660190701484681 0.0
-86.54886854532381 44.2037333711544 12.330778314708416 -0.5000110268592834 -0.866019070148468 0.0
-88.1816249379935 45.146432968276734 16.17655540499087 -0.5000110268592834 -0.866019070148468 0.0
-85.90162965123707 43.83003901758348 15.589606684811208 -0.5000110268592834 -0.866019070148468 0.0
-83.10384440355307 42.214690250512334 16.33381777205805 -0.5000110268592834 -0.866019070148468 0.0
-89.54330382926949 45.93262137211877 1.5908104584265765 -0.5000110268592834 -0.866019070148468 0.0
-89.2826496388285 45.78212825421083 8.110806214888274 -0.5000110268592834 -0.866019070148468 0.0
-87.37022943865473 44.6779600143397 11.314155995564981 -0.5000110268592834 -0.866019070148468 0.0
-84.10435573066663 42.79235243528205 17.487862615690197 -0.5000110268592834 -0.866019070148468 0.0
-86.75812652979195 44.32455201779292 12.32283481467731 -0.5000110268592834 -0.866019070148468 0.0
-87.83579512238384 44.94676225848085 14.34059069150083 -0.5000110268592834 -0.866019070148468 0.0
-86.36890354998779 44.09982752864105 14.267382044704894 -0.5000110268592834 -0.866019070148468 0.0
-89.07419899393592 45.661775738769855 2.4860650196108054 -0.5000110268592834 -0.866019070148468 0.0
-87.4932046527553 44.74896184003096 18.711659563072303 -0.5000110268592834 -0.8660190701484679 0.0
-86.96544470917136 44.444250685061675 19.08720720109151 -0.5000110268592834 -0.866019070148468 0.0
-86.55104275951516 44.20498869059546 8.046388095498562 -0.5000110268592834 -0.866019070148468 0.0
-87.53313526412099 44.77201645578153 17.54526970021857 -0.5000110268592834 -0.8660190701484679 0.0
-83.65285270785603 42.53166950694444 18.319633739503097 -0.5000110268592834 -0.866019070148468 0.0
-87.25314347061283 44.61035844475018 7.774916256597115 -0.5000110268592834 -0.866019070148468 0.0
-87.09591385235395 44.51957925781588 10.70940849941405 -0.5000110268592834 -0.866019070148468 0.0
-87.74148652789678 44.89231159184909 15.260781327486269 -0.5000110268592834 -0.866019070148468 0.0
-83.3331805420552 42.347101359935735 16.04807186134064 -0.5000110268592834 -0.866019070148468 0.0
-84.707441002873 43.14055394635362 12.045646556264437 -0.5000110268592834 -0.866019070148468 0.0
-84.23462340478144 42.86756468645277 15.743549081092164 -0.5000110268592834 -0.8660190701484681 0.0
-88.38661710514097 45.264788672930976 16.08740287418401 -0.5000110268592834 -0.866019070148468 0.0
-87.3972307508183 44.69354967989705 19.750105709128896 -0.5000110268592834 -0.8660190701484679 0.0
-88.41902753011385 45.28350138151485 14.832720949417615 -0.5000110268592834 -0.8660190701484681 0.0
-87.74698455016937 44.89548596826225 12.605478546686548 -0.5000110268592834 -0.866019070148468 0.0
-89.49772763465747 45.90630718312399 0.85944634418192 -0.5000110268592834 -0.866019070148468 0.0
-85.65901969773606 43.689964045928136 16.100988149892228 -0.5000110268592834 -0.866019070148468 0.0
-87.95926695201769 45.018050813573545 18.515305651969307 -0.5000110268592834 -0.866019070148468 0.0
-87.95775412082568 45.01717735482512 5.33359386746651 -0.5000110268592834 -0.866019070148468 0.0
-83.32350532335425 42.341515208313616 15.327946444624386 -0.5000110268592834 -0.8660190701484681 0.0
-81.71089494637262 41.41044725505316 18.576948282858307 -0.5000110268592834 -0.866019070148468 0.0
-85.43989661870378 43.56344961961732 10.138596816886666 -0.5000110268592834 -0.866019070148468 0.0
-86.67256827302914 44.275153507064125 10.80862799186105 -0.5000110268592834 -0.866019070148468 0.0
-88.59506035631057 45.38513691948057 7.650071237694453 -0.5000110268592834 -0.866019070148468 0.0
-87.48509242618948 44.744278108428574 7.1917198500354 -0.5000110268592834 -0.866019070148468 0.0
-83.49236723291666 42.43901049593181 17.94403925015277 -0.5000110268592834 -0.866019070148468 0.0
-84.35944400185723 42.93963197530505 14.69799541468534 -0.5000110268592834 -0.8660190701484681 0.0
-83.69368137011202 42.555242627608706 17.98372651571075 -0.5000110268592834 -0.8660190701484679 0.0
-83.53210251672893 42.461952336006384 15.533034001827055 -0.5000110268592834 -0.866019070148468 0.0
-88.56195548191326 45.36602325874268 17.629543573878262 -0.5000110268592834 -0.866019070148468 0.0
-88.1115738148655 45.1059877641745 6.407829409843254 -0.5000110268592834 -0.8660190701484681 0.0
-86.01817871122014 43.89733059419853 19.37077502804084 -0.5000110268592834 -0.866019070148468 0.0
-87.36622514733435 44.675648068827535 11.037606472859327 -0.5000110268592834 -0.866019070148468 0.0
-88.61180326415007 45.394803721304676 17.959526186775726 -0.5000110268592834 -0.866019070148468 0.0
-89.45368035006439 45.8808757362611 12.842821285787736 -0.5000110268592833 -0.8660190701484679 0.0
-87.33290960337352 44.65641277444389 13.19899275234502 -0.5000110268592834 -0.866019070148468 0.0
-88.50751814047024 45.334592936327695 3.929693442769251 -0.5000110268592834 -0.866019070148468 0.0
-89.03541578614355 45.6393835959339 12.841009801794112 -0.5000110268592834 -0.866019070148468 0.0
-85.84112839606364 43.79510759172384 15.528414611454357 -0.5000110268592834 -0.866019070148468 0.0
-81.76665833986226 41.44264319610896 17.103024405866666 -0.5000110268592834 -0.866019070148468 0.0
-88.40923429144655 45.277847089063386 0.6193140626213545 -0.5000110268592834 -0.8660190701484679 0.0
-83.1386927354172 42.23481052599016 12.221648946403011 -0.5000110268592836 -0.8660190701484681 0.0
-81.01365349176051 41.007883075050096 2.629923074277427 -0.5000110268592834 -0.866019070148468 0.0
-87.96222092988926 45.01975634280125 0.6313284606153657 -0.5000110268592836 -0.866019070148468 0.0
-84.02942002803388 42.749087036353515 3.5312813651043085 -0.5000110268592834 -0.866019070148468 0.0
-83.83915328278853 42.639233303798036 9.97444321014066 -0.5000110268592834 -0.866019070148468 0.0
-83.92180834712477 42.686955607137165 5.025327006094686 -0.5000110268592834 -0.866019070148468 0.0
-84.91943198743184 43.26295053694999 1.7857811384084843 -0.5000110268592834 -0.866019070148468 0.0
-82.21046565407465 41.69888287655748 1.1938873395623562 -0.5000110268592834 -0.866019070148468 0.0
-81.62841335860186 41.36282511135151 18.01738793056813 -0.5000110268592834 -0.8660190701484681 0.0
-81.30402880570949 41.17553618772688 2.4072607425964 -0.5000110268592834 -0.866019070148468 0.0
-87.37270204261496 44.679387614174935 1.6514126582842725 -0.5000110268592834 -0.866019070148468 0.0
-82.48956207197435 41.86002392729446 8.263611222818309 -0.5000110268592834 -0.866019070148468 0.0
-81.36179319179041 41.20888743579485 8.483634107432644 -0.5000110268592834 -0.866019070148468 0.0
-86.94234257368844 44.43091227529632 5.673774171345265 -0.5000110268592834 -0.866019070148468 0.0
-88.54792676136216 45.357923538985936 1.190378706592281 -0.5000110268592834 -0.866019070148468 0.0
-86.87238320378145 44.39052004647252 4.905717042750308 -0.5000110268592834 -0.866019070148468 0.0
-85.93238676509004 43.84779715894983 0.14808515537499956 -0.5000110268592834 -0.866019070148468 0.0
-82.03896713172854 41.59986529582799 17.096218870697665 -0.5000110268592834 -0.866019070148468 0.0
-86.31051503127243 44.066115927010415 3.6711060415954266 -0.5000110268592834 -0.866019070148468 0.0
-82.67293470108831 41.9658972249677 9.669436853801637 -0.5000110268592834 -0.866019070148468 0.0
-81.39902854982398 41.23038590131888 2.1021194957237554 -0.5000110268592834 -0.866019070148468 0.0
-81.9336002575114 41.5390299438303 4.769506796595211 -0.5000110268592834 -0.866019070148468 0.0
-87.72855658897787 44.88484627230455 1.529432887592006 -0.5000110268592834 -0.866019070148468 0.0
-82.0371213893466 41.59879962515742 12.768029047013243 -0.5000110268592834 -0.866019070148468 0.0
