ply
format ascii 1.0
comment Generated by the CGAL library
element vertex 2142
property double x
property double y
property double z
element face 0
property list uchar int vertex_indices
property uchar red
property uchar green
property uchar blue
property uchar alpha
end_header
-87.8583 44.9598 18.4258 
-89.1859 45.7263 7.28803 
-87.8161 44.9354 7.2475 
-86.8474 44.3761 15.5327 
-86.2484 44.0303 15.2977 
-87.5331 44.772 12.7901 
-87.7285 44.8848 11.63 
-88.2535 45.188 8.97634 
-87.6648 44.848 14.4339 
-83.5811 42.4902 17.7894 
-87.3699 44.6777 11.2029 
-87.9449 45.0098 15.0271 
-85.9569 43.8619 18.734 
-88.654 45.4192 9.77941 
-88.4515 45.3023 4.48301 
-85.7757 43.7573 10.7691 
-86.987 44.4567 15.0601 
-89.6265 45.9806 14.7358 
-89.3709 45.8331 6.78095 
-83.7016 42.5598 19.7229 
-87.1405 44.5453 14.1971 
-86.1114 43.9512 12.1609 
-88.403 45.2742 10.5714 
-89.5637 45.9444 18.6528 
-87.8393 44.9488 12.8884 
-88.9026 45.5627 11.4373 
-87.5616 44.7884 14.8577 
-86.8965 44.4044 14.4619 
-87.6356 44.8312 17.4244 
-89.3757 45.8359 12.4548 
-87.8341 44.9458 12.1368 
-86.1287 43.9612 16.893 
-85.6559 43.6882 16.4582 
-84.2422 42.8719 12.8162 
-85.3411 43.5064 11.2867 
-88.2088 45.1621 16.9801 
-86.8289 44.3654 11.8071 
-85.5973 43.6543 12.4371 
-84.3353 42.9257 14.4632 
-85.7265 43.7289 19.1815 
-84.1649 42.8273 14.2609 
-89.5045 45.9102 3.04145 
-88.1776 45.1441 15.1491 
-83.8705 42.6573 16.2091 
-86.7867 44.3411 18.8239 
-85.0465 43.3363 19.0271 
-84.5738 43.0634 15.0831 
-83.2048 42.273 16.5735 
-89.4976 45.9062 11.4182 
-83.8872 42.667 13.4397 
-86.074 43.9296 15.3487 
-86.4044 44.1203 14.6168 
-86.3125 44.0673 13.3711 
-88.4005 45.2728 15.9072 
-88.0543 45.0729 14.5406 
-88.7719 45.4872 9.72108 
-83.3328 42.3469 19.7827 
-88.0605 45.0765 4.18105 
-82.1044 41.6377 19.0132 
-84.0992 42.7893 18.0006 
-88.1244 45.1134 14.5008 
-84.0026 42.7336 16.0472 
-88.9435 45.5863 19.2608 
-88.5607 45.3653 10.2326 
-88.0191 45.0526 15.0227 
-85.9702 43.8696 13.0965 
-89.2871 45.7847 5.31052 
-87.3408 44.661 11.9316 
-86.1863 43.9944 10.6049 
-88.1949 45.1541 6.7107 
-89.3338 45.8116 15.9651 
-86.2312 44.0203 18.9889 
-88.5913 45.383 13.2505 
-89.1987 45.7337 12.6338 
-84.7924 43.1896 14.9862 
-87.896 44.9815 15.4115 
-88.6424 45.4124 13.647 
-86.8867 44.3988 9.00788 
-87.9207 44.9958 9.86006 
-84.6843 43.1272 16.8536 
-85.9223 43.842 11.058 
-89.5057 45.9109 7.91754 
-87.3086 44.6424 13.5117 
-87.9243 44.9979 7.11218 
-86.296 44.0578 12.4292 
-86.6772 44.2778 15.3348 
-87.3021 44.6386 5.81632 
-89.61 45.9711 0.134573 
-85.674 43.6986 18.2109 
-86.8355 44.3692 10.3934 
-84.1738 42.8325 15.44 
-86.6177 44.2435 12.0617 
-84.7103 43.1422 19.6362 
-89.2036 45.7365 18.4594 
-88.5826 45.378 19.9144 
-88.3431 45.2397 13.7001 
-89.0324 45.6376 5.64451 
-88.94 45.5843 10.3792 
-85.2936 43.479 18.7594 
-86.4335 44.1371 7.62056 
-88.9394 45.5839 17.5687 
-86.5091 44.1808 11.0933 
-88.9743 45.6041 1.81985 
-87.8882 44.977 16.9499 
-89.5354 45.9281 7.54456 
-87.338 44.6593 6.90239 
-87.8966 44.9818 11.331 
-86.8607 44.3838 15.7117 
-86.4007 44.1182 14.9215 
-87.8589 44.9601 11.6981 
-88.3974 45.271 4.3024 
-88.8377 45.5252 11.2321 
-86.3552 44.0919 8.29576 
-87.6184 44.8212 7.39561 
-85.4909 43.5929 12.9441 
-86.5969 44.2315 14.9959 
-87.3214 44.6498 9.83475 
-85.7644 43.7508 15.5134 
-88.9201 45.5728 8.70694 
-83.1747 42.2556 18.765 
-83.1604 42.2473 19.4424 
-88.3332 45.2339 11.1157 
-86.5808 44.2222 13.981 
-87.3588 44.6713 18.5238 
-87.2914 44.6324 7.52785 
-87.8013 44.9269 15.7041 
-87.724 44.8822 5.42293 
-88.615 45.3966 16.0065 
-84.1345 42.8098 19.4953 
-89.043 45.6437 9.22356 
-85.5088 43.6032 15.7029 
-87.2914 44.6325 15.7178 
-86.9255 44.4212 8.83661 
-87.8569 44.9589 12.9625 
-85.3473 43.51 19.3518 
-85.026 43.3245 18.6662 
-85.5155 43.6071 17.5175 
-85.3701 43.5232 12.4407 
-86.0854 43.9361 18.577 
-87.2771 44.6242 13.6048 
-84.6024 43.0799 16.1553 
-81.6318 41.3648 19.8826 
-85.6733 43.6982 12.9543 
-89.4836 45.8981 11.084 
-84.2699 42.888 13.484 
-83.9621 42.7102 13.7913 
-84.2986 42.9045 13.5125 
-88.124 45.1131 7.48977 
-88.0365 45.0627 7.5901 
-87.8829 44.9739 15.5659 
-84.9467 43.2787 11.4422 
-84.6203 43.0902 14.4387 
-83.3818 42.3752 19.9854 
-85.0997 43.3671 19.211 
-83.1341 42.2322 15.323 
-88.3924 45.2681 15.5772 
-89.0261 45.634 8.15959 
-87.2204 44.5914 16.8883 
-89.2739 45.7771 6.66101 
-83.6135 42.509 14.0147 
-88.5138 45.3382 9.98321 
-87.4807 44.7417 9.31303 
-84.189 42.8412 15.7735 
-89.1587 45.7105 14.0037 
-88.5867 45.3803 7.39796 
-89.1457 45.7031 3.35214 
-86.2011 44.0029 17.5601 
-88.9576 45.5945 3.10059 
-82.4768 41.8527 18.4047 
-88.4364 45.2935 5.8296 
-87.2009 44.5802 19.7757 
-84.1642 42.8269 16.9656 
-87.5061 44.7564 9.63312 
-85.3591 43.5168 17.9432 
-85.6925 43.7093 11.1907 
-89.4812 45.8968 18.685 
-87.7094 44.8738 18.4406 
-87.9683 45.0233 12.2055 
-87.7525 44.8986 16.6074 
-86.4778 44.1627 9.16389 
-86.3594 44.0944 13.0137 
-86.7832 44.339 18.6193 
-89.2451 45.7605 6.01638 
-86.4529 44.1483 17.1721 
-88.8647 45.5408 11.4101 
-88.8262 45.5186 10.6324 
-83.7874 42.6093 16.2515 
-81.8711 41.5029 18.0604 
-86.4216 44.1303 14.2546 
-89.4862 45.8996 5.46794 
-85.6318 43.6742 19.7386 
-84.2029 42.8492 15.3469 
-85.4462 43.5671 10.5965 
-89.0254 45.6336 18.6575 
-84.4633 42.9996 12.4778 
-88.9974 45.6174 15.351 
-87.8864 44.976 10.2957 
-83.7458 42.5854 16.3153 
-84.6175 43.0886 12.8648 
-89.4932 45.9037 15.5703 
-89.014 45.627 16.5176 
-87.5273 44.7687 17.8992 
-88.2137 45.165 17.8986 
-87.3405 44.6608 15.9075 
-86.7424 44.3155 15.8529 
-87.9383 45.0059 19.0099 
-86.6641 44.2703 12.8267 
-83.9761 42.7183 17.1277 
-87.0268 44.4797 8.88301 
-89.303 45.7939 18.5755 
-86.1092 43.9499 9.30929 
-83.8438 42.6419 17.2138 
-89.6502 45.9944 12.6833 
-85.547 43.6253 17.1598 
-85.8366 43.7925 13.2038 
-88.8352 45.5238 10.1116 
-88.543 45.3551 14.1214 
-89.1168 45.6863 2.48757 
-86.6618 44.2689 19.9507 
-84.8325 43.2128 18.5439 
-87.9982 45.0405 9.46746 
-86.4702 44.1583 9.77702 
-89.5728 45.9497 9.48818 
-88.9257 45.576 4.08354 
-89.1553 45.7086 3.16588 
-87.8099 44.9318 10.1707 
-86.7462 44.3176 17.5136 
-87.908 44.9884 14.3047 
-86.5431 44.2004 18.6235 
-88.7584 45.4795 16.0327 
-86.2969 44.0582 12.2322 
-85.1971 43.4233 15.8595 
-88.9565 45.5938 2.7464 
-89.5564 45.9402 14.483 
-88.6419 45.4122 15.3526 
-89.0084 45.6238 8.10573 
-84.2385 42.8698 19.1046 
-87.842 44.9503 16.8977 
-85.0655 43.3473 13.4046 
-87.6696 44.8508 4.67615 
-88.6167 45.3977 19.8706 
-87.9817 45.031 13.0352 
-86.9411 44.4302 15.2263 
-88.5578 45.3636 7.35511 
-89.2309 45.7522 12.5784 
-87.9547 45.0154 9.18856 
-84.6086 43.0835 19.4689 
-87.512 44.7598 14.2305 
-87.7355 44.8889 16.022 
-88.4194 45.2837 7.90847 
-89.3839 45.8406 17.7775 
-87.8572 44.9591 14.7226 
-88.8438 45.5288 12.4861 
-81.9678 41.5588 19.206 
-86.7479 44.3187 16.8056 
-86.332 44.0785 14.8156 
-86.0382 43.9089 13.8597 
-88.8322 45.522 5.60209 
-89.6547 45.997 0.0761021 
-86.3947 44.1147 11.1969 
-87.9536 45.0148 11.2288 
-88.5804 45.3767 14.1786 
-82.3832 41.7986 17.1224 
-88.2222 45.1699 10.9779 
-85.7351 43.7339 13.3103 
-84.8275 43.2099 16.891 
-81.5092 41.294 18.9658 
-89.5739 45.9503 7.68089 
-88.887 45.5537 5.79298 
-83.4874 42.4361 19.6183 
-88.5546 45.3618 12.9121 
-89.079 45.6646 8.38244 
-86.7233 44.3045 7.15831 
-87.6987 44.8676 19.8028 
-88.5339 45.3498 17.6313 
-87.3163 44.6468 12.6388 
-88.9322 45.5798 4.72119 
-87.4273 44.7109 18.3766 
-86.2117 44.0091 13.5893 
-84.5902 43.0729 19.4144 
-88.0354 45.062 16.7456 
-88.5741 45.373 12.4482 
-89.4288 45.8665 10.0116 
-85.666 43.694 13.7655 
-86.554 44.2067 10.6127 
-89.3356 45.8127 17.3011 
-85.6777 43.7008 16.4229 
-89.4481 45.8776 14.8725 
-87.7433 44.8933 14.3607 
-84.5824 43.0683 13.3743 
-84.4256 42.9778 14.7874 
-88.3709 45.2557 7.22571 
-89.2843 45.7831 1.43855 
-86.3157 44.0691 17.3201 
-87.3478 44.665 6.65679 
-84.178 42.8348 13.7311 
-89.3361 45.813 12.3113 
-87.3999 44.6951 15.2287 
-87.2166 44.5893 10.291 
-86.9066 44.4103 11.88 
-87.6417 44.8347 11.4648 
-86.9093 44.4118 19.3462 
-89.6387 45.9877 2.07655 
-87.2507 44.609 7.9275 
-88.5668 45.3688 6.13412 
-87.1585 44.5557 7.55561 
-83.132 42.231 15.7236 
-87.2943 44.6341 15.542 
-87.0784 44.5095 6.92385 
-88.6627 45.4242 9.13454 
-88.7068 45.4497 5.41173 
-84.8338 43.2135 14.3191 
-83.4487 42.4138 4.92251 
-81.9327 41.5385 11.9421 
-87.6033 44.8126 3.59663 
-82.0507 41.6066 6.47856 
-82.4786 41.8537 14.8672 
-84.5367 43.042 2.07461 
-81.422 41.2436 4.11976 
-81.3607 41.2083 0.855729 
-88.8768 45.5478 1.10186 
-82.3109 41.7569 0.0881492 
-83.0623 42.1907 13.6645 
-87.8344 44.946 1.1542 
-86.1093 43.9499 2.40718 
-82.4513 41.8379 15.5665 
-84.9015 43.2526 8.29508 
-83.1584 42.2462 4.36594 
-85.2315 43.4431 0.766091 
-84.4046 42.9657 3.59975 
-87.7926 44.9218 1.59526 
-84.0219 42.7448 5.34667 
-87.1698 44.5622 0.926151 
-88.7913 45.4985 1.62283 
-83.6359 42.5219 2.7109 
-84.0039 42.7344 11.8149 
-83.9206 42.6862 0.805149 
-87.7324 44.8871 1.0245 
-87.7407 44.8918 1.49943 
-87.1454 44.5481 1.87157 
-86.6686 44.2729 0.314998 
-82.5047 41.8688 8.60042 
-82.9866 42.147 1.79849 
-86.6826 44.281 6.57606 
-81.9393 41.5423 4.57675 
-81.5828 41.3365 16.9182 
-82.1039 41.6374 11.8722 
-88.804 45.5058 0.661335 
-89.0463 45.6457 0.382129 
-81.2689 41.1553 3.49675 
-83.1744 42.2555 13.9533 
-87.1036 44.524 4.0158 
-83.5579 42.4769 8.34983 
-81.2894 41.1671 8.8707 
-87.6336 44.83 1.32421 
-81.3321 41.1918 8.66909 
-82.9507 42.1263 10.0617 
-85.2093 43.4303 1.78674 
-84.7546 43.1678 7.23657 
-83.4743 42.4286 2.32063 
-82.4597 41.8428 4.77912 
-84.7606 43.1712 9.71669 
-81.5472 41.3159 13.8304 
-83.9388 42.6968 4.64258 
-82.8641 42.0763 15.3012 
-83.8142 42.6248 7.94377 
-82.124 41.6489 7.2778 
-82.0278 41.5934 16.8199 
-81.6792 41.3921 16.2874 
-82.585 41.9151 7.24841 
-81.5173 41.2987 3.11743 
-83.0958 42.21 7.08161 
-81.564 41.3256 2.05718 
-82.3894 41.8022 7.94644 
-85.804 43.7737 7.06603 
-81.5666 41.3271 9.95989 
-85.5567 43.6309 7.31739 
-86.8693 44.3887 4.71381 
-85.5616 43.6337 6.21664 
-81.1193 41.0689 15.5488 
-85.587 43.6484 6.92186 
-81.3997 41.2308 5.10341 
-82.7698 42.0218 9.20718 
-81.1879 41.1085 2.90928 
-82.7949 42.0363 9.76414 
-84.4929 43.0167 9.34832 
-81.2881 41.1664 0.793689 
-84.2331 42.8667 10.2303 
-82.5868 41.9161 4.64646 
-88.3961 45.2703 1.97352 
-83.8404 42.64 6.81296 
-84.745 43.1622 0.183507 
-88.0888 45.0928 1.61373 
-81.1242 41.0717 10.7429 
-84.6761 43.1224 10.711 
-85.8988 43.8284 1.36977 
-87.8696 44.9663 0.253296 
-86.7962 44.3465 0.179956 
-82.0447 41.6032 2.37838 
-81.8824 41.5095 17.551 
-87.1229 44.5352 5.41491 
-83.3478 42.3555 1.95193 
-81.0614 41.0355 13.8362 
-82.0128 41.5848 8.15427 
-84.2758 42.8914 7.29451 
-82.0324 41.5961 12.7936 
-83.8642 42.6537 3.1926 
-82.7624 42.0175 0.964426 
-81.1571 41.0907 18.4804 
-82.4216 41.8208 1.17916 
-81.2068 41.1194 4.75367 
-86.0585 43.9206 0.233569 
-85.0439 43.3348 7.07442 
-81.3121 41.1802 7.84956 
-82.9186 42.1077 14.4494 
-83.1496 42.2411 2.63388 
-81.7609 41.4393 13.4511 
-84.7323 43.1549 3.70225 
-85.1657 43.4051 1.79151 
-85.0928 43.363 0.363277 
-81.8211 41.4741 4.85359 
-81.2246 41.1297 7.04712 
-82.9131 42.1046 3.92757 
-81.3413 41.1971 8.3649 
-83.2911 42.3228 0.266563 
-82.0024 41.5788 4.48356 
-88.4933 45.3264 1.45879 
-85.8724 43.8132 3.79866 
-84.0029 42.7338 8.01885 
-83.2218 42.2828 2.71834 
-85.4581 43.574 8.32315 
-85.2156 43.4339 3.64122 
-89.1173 45.6866 1.083 
-84.2993 42.9049 4.13318 
-87.8808 44.9727 1.57981 
-82.5537 41.8971 1.94481 
-84.8199 43.2055 4.99568 
-81.4575 41.2641 11.2924 
-85.8451 43.7974 8.77126 
-82.5537 41.8971 1.74256 
-83.1093 42.2178 9.36311 
-87.7902 44.9204 2.88098 
-84.5472 43.048 4.6821 
-82.3201 41.7622 6.118 
-81.5641 41.3257 8.87307 
-83.887 42.6669 5.59615 
-83.981 42.7211 12.8037 
-86.9014 44.4073 2.08182 
-84.1239 42.8036 9.37849 
-83.0158 42.1639 0.976379 
-87.6372 44.8321 2.28613 
-85.7931 43.7674 3.10918 
-85.5804 43.6446 1.35389 
-87.8001 44.9261 1.43132 
-81.4397 41.2538 6.01884 
-84.2925 42.901 9.84223 
-81.2697 41.1557 6.63112 
-84.6835 43.1267 3.01557 
-84.1455 42.8161 9.24021 
-81.8714 41.5031 17.9532 
-82.215 41.7015 1.67087 
-87.2004 44.5799 4.47095 
-84.7907 43.1886 9.7761 
-83.7649 42.5963 5.95645 
-85.6564 43.6885 3.92683 
-88.3743 45.2577 0.196749 
-81.2363 41.1364 2.02015 
-84.4878 43.0137 8.10583 
-83.5626 42.4795 3.67717 
-83.4677 42.4248 0.652587 
-82.09 41.6293 1.4011 
-86.6394 44.256 6.65043 
-86.6091 44.2385 1.27641 
-85.5648 43.6356 4.30142 
-87.6077 44.8151 0.129816 
-82.3312 41.7686 0.743605 
-83.4082 42.3904 0.087791 
-86.4332 44.1369 1.60695 
-82.777 42.026 7.57825 
-84.8287 43.2105 3.65663 
-84.6624 43.1146 0.19303 
-83.7699 42.5992 0.743672 
-81.0661 41.0381 12.8883 
-81.951 41.5491 16.2484 
-81.8558 41.4941 14.9585 
-84.3648 42.9427 4.05672 
-86.5095 44.181 4.46897 
-84.3585 42.9391 4.20255 
-84.1905 42.8421 5.71885 
-84.0043 42.7346 1.20755 
-81.5591 41.3228 5.12977 
-83.743 42.5837 3.4492 
-83.1586 42.2463 0.109336 
-81.3058 41.1765 14.655 
-81.6568 41.3792 1.3159 
-85.2946 43.4796 3.35386 
-81.9502 41.5486 9.06734 
-85.4334 43.5597 0.0726217 
-83.7175 42.569 12.4441 
-85.2054 43.4281 9.5881 
-83.0276 42.1707 8.95611 
-84.4443 42.9886 7.53376 
-81.1851 41.1069 9.19358 
-89.1018 45.6777 0.267553 
-82.5158 41.8752 5.39294 
-82.7847 42.0304 11.502 
-81.3299 41.1905 4.60728 
-81.0991 41.0572 6.77033 
-82.1777 41.68 3.63216 
-83.5604 42.4783 5.03923 
-81.5716 41.33 16.1642 
-88.1458 45.1258 3.42464 
-87.216 44.5889 0.621087 
-86.8422 44.3731 6.17002 
-84.137 42.8112 6.51565 
-81.6746 41.3895 15.4208 
-84.9425 43.2763 3.2691 
-81.0862 41.0498 3.72022 
-84.0769 42.7765 0.909308 
-81.6856 41.3959 6.81794 
-83.8464 42.6434 1.69022 
-82.1958 41.6904 11.8229 
-82.6914 41.9766 3.71097 
-85.6972 43.712 8.57503 
-83.4336 42.4051 6.74446 
-82.1488 41.6633 4.65668 
-82.8191 42.0503 2.06704 
-83.0528 42.1852 8.15422 
-83.4299 42.403 5.07271 
-84.963 43.2881 1.08687 
-86.8271 44.3644 3.17833 
-87.4667 44.7336 2.52799 
-82.6264 41.939 12.4018 
-81.981 41.5664 11.6879 
-83.8675 42.6556 9.5568 
-83.2111 42.2766 13.1929 
-81.6278 41.3625 14.0956 
-83.6364 42.5222 4.56083 
-83.9824 42.7219 11.0866 
-88.2041 45.1594 0.204512 
-83.5073 42.4476 5.96895 
-84.9172 43.2617 1.86446 
-81.9381 41.5416 3.27738 
-85.3958 43.538 8.71293 
-83.5139 42.4514 7.78721 
-88.4051 45.2755 0.609329 
-82.5303 41.8835 9.82406 
-82.4629 41.8446 1.14303 
-81.4511 41.2605 4.22035 
-86.7554 44.323 3.25511 
-82.2225 41.7059 11.2533 
-82.8728 42.0813 8.11041 
-83.7705 42.5996 11.6655 
-82.5502 41.895 12.1164 
-81.1386 41.08 17.9917 
-81.1548 41.0894 0.176994 
-87.975 45.0271 0.487603 
-84.718 43.1467 0.967207 
-86.2663 44.0406 6.44919 
-82.6725 41.9656 8.7188 
-85.7207 43.7256 1.80859 
-82.0388 41.5998 4.35237 
-88.0061 45.0451 0.649378 
-87.1121 44.5289 2.51829 
-85.1619 43.4029 5.50741 
-82.341 41.7743 16.3398 
-81.5598 41.3232 6.4036 
-84.9365 43.2728 9.2678 
-82.5876 41.9167 12.2725 
-83.3699 42.3683 12.2469 
-87.5989 44.81 1.07716 
-83.0633 42.1913 3.46589 
-81.4714 41.2721 11.2498 
-83.0322 42.1733 10.8996 
-86.5614 44.211 3.01712 
-81.5704 41.3293 13.929 
-81.8127 41.4692 6.10358 
-81.3833 41.2213 7.38811 
-82.5193 41.8772 14.6409 
-81.3837 41.2215 7.02246 
-82.626 41.9388 11.2222 
-82.207 41.6969 12.9854 
-85.057 43.3424 6.46817 
-83.1956 42.2677 1.68753 
-82.1462 41.6618 2.34998 
-82.217 41.7027 4.87156 
-82.0167 41.587 10.0825 
-83.8575 42.6498 1.16872 
-83.4778 42.4306 5.63927 
-81.1256 41.0725 7.03589 
-82.8726 42.0812 5.85045 
-89.0468 45.6459 0.499992 
-82.5014 41.8668 1.04225 
-82.0023 41.5787 16.3827 
-85.2055 43.4281 2.73724 
-83.7168 42.5686 10.0493 
-85.5758 43.6419 1.23706 
-81.5521 41.3188 6.0357 
-81.1521 41.0878 0.345233 
-81.7209 41.4162 12.809 
-82.4252 41.8229 15.2384 
-86.7948 44.3457 4.18882 
-87.9645 45.0211 0.472064 
-87.9305 45.0014 2.53381 
-81.8688 41.5016 8.78194 
-87.5679 44.7921 3.9066 
-85.8002 43.7715 0.993323 
-81.81 41.4677 13.877 
-82.7191 41.9926 0.998178 
-84.3422 42.9297 9.14375 
-81.0036 41.0021 17.6631 
-83.6593 42.5354 3.90404 
-82.5217 41.8786 16.3141 
-84.3339 42.9249 10.1673 
-81.512 41.2956 1.90171 
-82.8274 42.0551 6.16327 
-84.7128 43.1437 0.219414 
-86.8317 44.3671 5.73594 
-82.7309 41.9994 2.49211 
-82.9282 42.1133 3.81845 
-81.7817 41.4513 1.74894 
-82.0629 41.6137 7.43585 
-85.0847 43.3584 1.56364 
-86.8267 44.3641 4.98912 
-86.1596 43.979 1.96429 
-82.5835 41.9143 4.06258 
-83.5869 42.4936 3.89109 
-87.8911 44.9787 3.15322 
-85.9441 43.8545 5.25546 
-85.4207 43.5524 4.42833 
-84.3522 42.9354 2.58658 
-86.5344 44.1954 6.32347 
-83.4174 42.3957 8.16509 
-81.8873 41.5123 1.25523 
-81.9932 41.5734 12.5869 
-82.0621 41.6132 16.6281 
-82.5307 41.8837 16.0697 
-84.4144 42.9714 7.3646 
-86.6458 44.2597 1.56069 
-83.3393 42.3506 7.40469 
-82.6342 41.9436 7.24249 
-84.4734 43.0054 9.4985 
-84.2724 42.8893 7.5149 
-81.4812 41.2778 10.3448 
-83.4689 42.4254 9.6857 
-86.1604 43.9794 6.47185 
-81.1971 41.1138 7.2732 
-84.9068 43.2556 5.42016 
-84.0395 42.7549 12.8173 
-86.2463 44.0291 0.0970346 
-84.2873 42.898 5.49287 
-83.7369 42.5802 6.13267 
-84.9293 43.2687 5.3487 
-85.9056 43.8323 5.65964 
-83.5111 42.4498 13.8004 
-86.0044 43.8894 7.83355 
-81.2516 41.1453 7.29695 
-82.6084 41.9286 1.14961 
-83.6491 42.5295 5.28152 
-82.5105 41.8721 16.2288 
-84.5731 43.063 0.156194 
-87.3641 44.6744 1.55274 
-81.6151 41.3551 5.91751 
-85.9672 43.8679 1.82612 
-85.3186 43.4934 5.0973 
-83.0182 42.1652 3.89815 
-82.4151 41.817 4.59562 
-82.6023 41.9251 8.74309 
-86.3411 44.0838 1.4895 
-81.8978 41.5184 17.1904 
-81.6679 41.3856 5.5239 
-82.7582 42.0151 14.7273 
-88.7892 45.4972 0.428767 
-84.6526 43.1089 6.23254 
-82.0025 41.5788 11.023 
-85.5301 43.6155 6.78332 
-87.4241 44.7091 2.44796 
-87.2207 44.5916 5.07754 
-83.2795 42.3161 6.53116 
-86.2739 44.045 6.09612 
-82.143 41.6599 13.2319 
-83.2743 42.3131 2.91647 
-88.0501 45.0705 2.99109 
-82.8773 42.0839 14.1461 
-82.4221 41.8211 12.512 
-81.5652 41.3263 4.85552 
-83.0123 42.1619 14.156 
-82.9329 42.116 8.25773 
-83.7815 42.6059 4.43828 
-81.4859 41.2805 3.41425 
-81.7451 41.4302 12.1782 
-85.694 43.7101 6.51292 
-81.7177 41.4143 13.3334 
-82.1086 41.6401 12.559 
-81.304 41.1755 18.2499 
-81.7607 41.4392 15.8646 
-81.653 41.377 0.807585 
-85.1513 43.3968 5.70861 
-86.793 44.3447 4.24963 
-83.283 42.3181 6.58648 
-82.0083 41.5822 10.4308 
-88.0149 45.0501 1.04752 
-85.919 43.8401 4.37602 
-87.2188 44.5905 1.23524 
-87.7552 44.9002 2.57065 
-82.199 41.6922 13.3773 
-85.7778 43.7585 6.9963 
-82.5385 41.8883 10.8312 
-81.8191 41.4729 0.481446 
-83.5302 42.4608 1.74059 
-84.6016 43.0795 1.7549 
-84.3791 42.951 3.2429 
-83.527 42.459 10.0459 
-81.9147 41.5281 2.14698 
-85.2137 43.4328 6.00495 
-83.218 42.2806 11.8149 
-84.1226 42.8029 12.205 
-81.999 41.5768 0.970991 
-86.2686 44.0419 7.27128 
-82.0443 41.6029 1.70271 
-85.725 43.7281 3.72967 
-82.6944 41.9783 5.61047 
-82.8503 42.0683 7.13221 
-81.559 41.3227 2.28346 
-84.4928 43.0166 8.51534 
-84.6224 43.0915 8.94836 
-83.7282 42.5752 5.53601 
-83.132 42.231 9.92263 
-82.6319 41.9422 15.6087 
-81.5971 41.3447 1.74329 
-81.608 41.351 6.86611 
-83.1039 42.2147 8.00181 
-82.1739 41.6778 1.05208 
-83.923 42.6877 2.26398 
-85.3309 43.5005 2.83165 
-82.526 41.881 4.63638 
-84.9308 43.2695 5.79446 
-83.6952 42.5561 13.6814 
-84.1154 42.7987 6.77856 
-81.2755 41.1591 10.6173 
-83.4421 42.41 1.03414 
-88.9506 45.5904 0.53208 
-85.3944 43.5372 0.19543 
-85.4501 43.5693 7.41904 
-82.7009 41.9821 4.85875 
-83.4269 42.4012 11.9492 
-85.8028 43.773 3.80982 
-84.2413 42.8714 9.91833 
-88.1908 45.1517 1.21924 
-82.0226 41.5904 12.7567 
-84.3899 42.9572 1.52305 
-84.9457 43.2781 0.595759 
-81.5436 41.3139 0.0658454 
-84.4428 42.9878 8.92943 
-83.0355 42.1752 8.65919 
-83.2844 42.3189 4.32691 
-81.5193 41.2998 4.02906 
-81.869 41.5017 0.0461204 
-82.9401 42.1202 12.4895 
-84.4604 42.9979 4.80781 
-85.472 43.582 2.63153 
-84.6385 43.1008 0.258587 
-82.6014 41.9246 10.1549 
-82.6763 41.9679 10.4114 
-82.6622 41.9597 12.8563 
-85.4907 43.5928 2.93856 
-83.2782 42.3153 8.43293 
-81.5296 41.3058 13.0852 
-83.3483 42.3559 10.1653 
-87.342 44.6617 0.747139 
-86.1464 43.9714 2.05992 
-82.4532 41.8391 4.44276 
-83.0307 42.1725 0.394753 
-87.1236 44.5355 4.11066 
-85.5927 43.6517 0.632227 
-81.8274 41.4777 11.6535 
-82.5226 41.8791 4.75309 
-82.5303 41.8835 2.4311 
-81.1564 41.0903 14.0597 
-84.7677 43.1753 8.08497 
-81.3293 41.1901 14.9639 
-81.4279 41.247 10.8999 
-86.0542 43.9182 4.5327 
-83.7492 42.5873 4.20425 
-82.2507 41.7221 5.0427 
-84.3414 42.9292 1.77627 
-81.2045 41.1181 12.8568 
-85.8364 43.7924 4.11806 
-82.249 41.7211 7.84645 
-81.7086 41.4091 14.4462 
-83.4256 42.4005 9.03283 
-82.8669 42.0779 11.3881 
-87.9349 45.004 3.85048 
-86.2856 44.0517 7.04619 
-84.0623 42.768 12.1183 
-82.1076 41.6395 10.9552 
-81.3863 41.223 1.99556 
-81.7482 41.432 7.42195 
-82.2507 41.7221 3.42855 
-86.1181 43.955 6.17069 
-83.8236 42.6303 8.87792 
-83.9089 42.6795 4.98656 
-84.0264 42.7474 1.34587 
-84.2482 42.8754 8.60686 
-82.6456 41.9501 13.0363 
-85.4816 43.5876 8.07519 
-81.0155 41.0089 16.7818 
-85.9541 43.8603 5.72969 
-84.9745 43.2947 1.98779 
-88.508 45.3349 1.7938 
-89.0888 45.6702 1.24836 
-82.9241 42.1109 13.3729 
-85.887 43.8216 1.43558 
-81.6842 41.395 10.2111 
-81.5896 41.3404 3.15125 
-82.3712 41.7917 11.0911 
-83.9863 42.7242 7.14528 
-85.6986 43.7128 0.567678 
-86.7166 44.3006 4.28673 
-83.7819 42.6062 12.1162 
-84.5099 43.0265 9.54665 
-85.1852 43.4164 9.24609 
-82.8145 42.0476 11.1564 
-81.208 41.1201 6.14566 
-82.925 42.1114 6.73527 
-82.1161 41.6444 11.7546 
-84.0417 42.7562 8.74993 
-84.3763 42.9493 9.7167 
-82.8827 42.087 10.3679 
-86.8836 44.397 1.14925 
-82.5012 41.8668 6.13639 
-83.0344 42.1746 0.123386 
-81.9885 41.5707 2.21828 
-86.1723 43.9863 7.94672 
-83.8937 42.6707 6.28049 
-85.4327 43.5593 8.93823 
-81.6729 41.3885 14.5977 
-82.4335 41.8277 7.33685 
-81.606 41.3499 8.60025 
-81.1078 41.0622 12.4586 
-81.0954 41.0551 13.7312 
-82.2989 41.7499 14.6406 
-82.8895 42.0909 2.05691 
-83.7478 42.5865 4.465 
-83.0606 42.1897 12.1063 
-85.8305 43.789 7.11185 
-87.6536 44.8416 2.67354 
-84.7738 43.1789 2.23055 
-82.4258 41.8232 16.0509 
-85.9587 43.863 3.66676 
-82.3564 41.7831 16.8013 
-85.784 43.7621 4.47235 
-84.2645 42.8848 3.12529 
-86.3656 44.0979 5.08455 
-84.6434 43.1036 11.2665 
-83.6366 42.5223 10.2424 
-88.6354 45.4084 2.19681 
-84.3231 42.9187 7.04 
-82.8194 42.0505 5.94546 
-83.5207 42.4554 11.7286 
-87.5672 44.7917 2.27459 
-81.1605 41.0927 2.06844 
-83.7152 42.5677 4.05929 
-84.926 43.2668 10.7995 
-85.1756 43.4108 4.22265 
-83.5549 42.4751 2.15969 
-86.8367 44.3699 3.47992 
-87.2117 44.5864 0.742842 
-85.8933 43.8253 2.77545 
-83.6126 42.5084 0.726436 
-83.9172 42.6843 3.5931 
-86.6699 44.2736 1.98277 
-87.8415 44.9501 3.24711 
-81.8982 41.5186 5.99762 
-85.8692 43.8113 1.76906 
-87.7294 44.8853 2.71871 
-83.1187 42.2233 9.38542 
-81.1745 41.1007 17.6962 
-82.3559 41.7829 2.62336 
-84.8948 43.2487 8.48695 
-82.9058 42.1004 11.405 
-81.5773 41.3333 17.6227 
-82.0379 41.5992 5.09469 
-84.5577 43.0541 9.92367 
-84.6115 43.0852 6.08465 
-84.6173 43.0885 0.905636 
-84.2015 42.8485 2.10625 
-82.1787 41.6805 4.40613 
-81.487 41.2812 15.6091 
-83.9516 42.7042 11.0409 
-81.852 41.4919 7.28503 
-81.1025 41.0592 0.00494467 
-82.6521 41.9539 1.44454 
-83.9171 58.1134 0 
-80.8456 60.3093 0 
-77.8761 57.042 0 
-82.2419 58.5751 0 
-79.6766 59.7432 0 
-74.6508 56.3816 0 
-79.3953 56.7139 0 
-81.0933 56.1995 0 
-85.6732 56.214 0 
-77.4807 58.7992 0 
-77.7766 58.7006 0 
-82.0615 58.0536 0 
-76.9114 58.5556 0 
-78.5313 57.2306 0 
-81.0147 56.8807 0 
-84.8564 57.8476 0 
-78.6824 56.596 0 
-85.2834 57.2388 0 
-84.4798 56.7414 0 
-77.7847 58.9326 0 
-81.5265 56.8716 0 
-81.7952 56.2124 0 
-77.5961 58.7628 0 
-74.687 56.7896 0 
-79.4809 58.1389 0 
-75.1417 57.1993 0 
-82.4527 58.8697 0 
-81.4798 60.651 0 
-82.0398 59.9727 0 
-81.7643 57.8113 0 
-85.7631 56.2758 0 
-73.2809 56.1332 0 
-79.9087 59.9523 0 
-77.7404 57.379 0 
-80.3791 58.8175 0 
-81.7185 60.5228 0 
-81.5271 57.4969 0 
-77.1246 58.1721 0 
-80.7125 56.6584 0 
-85.4866 56.7664 0 
-75.3783 56.3818 0 
-87.572 56.1318 0 
-77.4825 58.2219 0 
-77.1674 56.2493 0 
-80.0647 59.6348 0 
-80.1362 56.0954 0 
-78.0304 58.7414 0 
-77.5824 56.1421 0 
-81.1901 58.6256 0 
-79.3059 57.7994 0 
-80.8251 59.8786 0 
-84.2804 58.0346 0 
-77.4166 56.8928 0 
-77.2386 57.7328 0 
-88.1833 56.4449 0 
-77.1783 57.3628 0 
-83.3491 58.2963 0 
-84.8343 57.0789 0 
-82.8224 59.4234 0 
-75.0239 56.806 0 
-81.0602 58.173 0 
-80.019 56.9257 0 
-78.9018 57.0275 0 
-80.0074 58.9501 0 
-82.1136 57.8155 0 
-75.9238 57.9299 0 
-83.371 59.0806 0 
-84.9226 56.3708 0 
-75.7311 57.5869 0 
-78.0027 57.6299 0 
-80.4116 59.3257 0 
-80.8171 59.0204 0 
-76.8443 58.1097 0 
-79.3076 58.7318 0 
-84.356 57.7208 0 
-88.1575 56.3395 0 
-82.2503 56.87 0 
-78.3827 58.5376 0 
-79.2612 59.721 0 
-86.0114 57.6821 0 
-76.0678 57.1071 0 
-86.79 56.2536 0 
-82.0733 58.8279 0 
-85.0873 56.2227 0 
-89.0537 56.2408 0 
-73.2124 56.0608 0 
-76.9833 56.9195 0 
-83.9858 56.043 0 
-76.9701 58.5274 0 
-77.2338 57.8729 0 
-79.3954 57.6304 0 
-85.3281 56.8109 0 
-80.5594 57.386 0 
-80.1303 59.5827 0 
-74.0783 56.2378 0 
-79.9813 60.0406 0 
-81.5945 60.1735 0 
-79.4861 58.2555 0 
-83.4979 59.2932 0 
-86.2212 57.9753 0 
-81.2639 57.8731 0 
-82.1581 56.019 0 
-78.775 57.5363 0 
-78.945 57.3874 0 
-80.1522 56.6948 0 
-85.7823 56.3264 0 
-82.8989 59.7398 0 
-81.5001 59.435 0 
-76.2759 57.7502 0 
-80.4211 59.0361 0 
-81.5556 56.8143 0 
-82.3879 59.0825 0 
-76.4261 56.1008 0 
-82.9022 58.8134 0 
-76.3678 58.0105 0 
-82.01 57.7157 0 
-87.5703 56.1242 0 
-75.9389 56.4933 0 
-81.1875 57.3405 0 
-78.3237 57.8422 0 
-78.0183 59.0437 0 
-76.7799 56.214 0 
-79.9831 56.0169 0 
-83.6029 59.4404 0 
-88.1818 56.4484 0 
-82.6507 56.8519 0 
-82.4946 59.5485 0 
-84.527 56.5843 0 
-75.2977 57.2653 0 
-83.3393 57.0418 0 
-81.4799 60.6598 0 
-76.476 57.2216 0 
-76.6831 56.3997 0 
-80.8265 60.2553 0 
-88.6157 56.5885 0 
-80.6624 59.3511 0 
-83.0888 56.4179 0 
-84.9268 57.135 0 
-82.3158 56.4184 0 
-77.272 58.1925 0 
-80.462 56.854 0 
-84.7929 57.9954 0 
-82.7093 59.3544 0 
-85.686 56.7394 0 
-80.5113 56.5128 0 
-84.1322 58.4445 0 
-81.9438 56.4755 0 
-79.864 58.4033 0 
-77.1586 58.0969 0 
-84.178 56.4291 0 
-81.8393 58.9106 0 
-79.986 59.3615 0 
-76.1789 57.723 0 
-82.7494 56.3393 0 
-78.53 58.6905 0 
-77.0278 57.8141 0 
-81.6194 57.7448 0 
-77.2177 56.0288 0 
-82.0328 56.268 0 
-78.5811 57.711 0 
-83.0147 58.2468 0 
-85.8925 56.1139 0 
-76.4638 57.7296 0 
-83.6476 56.6778 0 
-74.3636 56.3053 0 
-83.0776 58.9147 0 
-78.7348 59.1265 0 
-78.7115 57.2246 0 
-83.0854 59.1689 0 
-74.5803 56.1307 0 
-82.7805 59.2943 0 
-85.5858 57.9076 0 
-86.5742 56.6515 0 
-85.3553 58.4645 0 
-79.016 57.5708 0 
-85.2522 56.3903 0 
-79.9492 57.8599 0 
-75.3825 57.7339 0 
-80.8639 59.3276 0 
-85.6536 57.5989 0 
-74.0556 56.2515 0 
-80.4515 57.8023 0 
-80.9315 58.2648 0 
-83.4251 56.2807 0 
-83.5754 57.0931 0 
-75.6336 56.7859 0 
-76.1401 56.3317 0 
-82.8198 59.6202 0 
-84.5387 57.7474 0 
-83.5228 59.3978 0 
-81.536 60.3043 0 
-76.3334 56.6419 0 
-83.2093 57.0789 0 
-77.6421 57.9767 0 
-79.5819 58.1378 0 
-77.7592 57.6424 0 
-74.4792 57.1065 0 
-76.9628 58.1273 0 
-80.2223 56.8813 0 
-80.752 56.636 0 
-82.4152 56.3188 0 
-81.6517 58.9785 0 
-79.0593 58.8266 0 
-76.8066 56.3817 0 
-78.3684 58.287 0 
-88.294 56.7256 0 
-75.7193 57.2993 0 
-81.6618 60.584 0 
-75.2466 57.4718 0 
-79.4272 56.1903 0 
-82.6896 59.7212 0 
-82.1392 59.3598 0 
-76.8461 57.7333 0 
-80.1539 59.626 0 
-85.2325 57.1774 0 
-74.1975 56.5337 0 
-74.8236 56.8348 0 
-82.2902 57.1666 0 
-84.139 57.0842 0 
-80.0875 60.268 0 
-86.1749 56.4292 0 
-80.7973 56.9284 0 
-76.8593 56.4914 0 
-82.3626 57.4973 0 
-79.8006 58.4979 0 
-80.783 58.9373 0 
-80.2644 57.1991 0 
-81.0241 56.2936 0 
-85.5982 57.0221 0 
-84.5794 56.5926 0 
-83.3465 56.6572 0 
-79.4375 56.6264 0 
-86.6597 56.0789 0 
-81.8969 60.3054 0 
-73.5344 56.5454 0 
-85.2292 57.7873 0 
-81.5221 56.5937 0 
-73.1254 56.0752 0 
-75.5022 57.148 0 
-75.9963 57.9323 0 
-82.0951 58.6205 0 
-80.9575 59.6963 0 
-77.7845 58.0134 0 
-83.0778 57.104 0 
-82.1539 58.7697 0 
-85.7994 56.4641 0 
-83.882 58.9614 0 
-86.2754 57.4636 0 
-82.19 59.6595 0 
-78.5416 56.8718 0 
-80.9688 60.3624 0 
-83.0008 57.8183 0 
-73.3218 52.7349 0 
-73.4141 46.9393 0 
-78.6153 53.5088 0 
-72.6727 49.5754 0 
-79.0673 50.5151 0 
-73.6374 50.1682 0 
-76.5442 54.4915 0 
-72.4411 55.5892 0 
-79.6801 51.7319 0 
-74.9752 50.4332 0 
-76.3236 54.8629 0 
-75.6773 49.119 0 
-73.9442 54.3597 0 
-72.8394 47.8222 0 
-76.9776 53.6467 0 
-83.0257 52.3573 0 
-75.1833 55.4617 0 
-79.354 51.3773 0 
-73.3457 51.1729 0 
-72.862 48.9769 0 
-76.4765 49.3345 0 
-82.6829 52.4982 0 
-75.6293 52.0985 0 
-79.562 55.946 0 
-72.7991 46.3401 0 
-84.9946 55.3159 0 
-81.9602 51.5559 0 
-76.7412 54.5254 0 
-76.9911 53.6729 0 
-72.3693 46.175 0 
-80.586 54.1378 0 
-76.6879 48.6427 0 
-75.4317 47.8074 0 
-73.8486 47.8061 0 
-75.896 54.2865 0 
-75.4923 51.793 0 
-73.9966 48.07 0 
-73.8629 52.3515 0 
-78.1875 54.2604 0 
-80.0335 52.0053 0 
-78.6606 50.3529 0 
-79.2767 55.9354 0 
-74.4158 49.6303 0 
-86.3662 55.2515 0 
-77.0111 54.4829 0 
-78.5227 55.4169 0 
-73.4029 55.044 0 
-78.6657 52.4479 0 
-77.6668 49.3484 0 
-84.0162 54.0522 0 
-74.3228 49.3912 0 
-73.4487 53.2757 0 
-76.1582 48.633 0 
-74.8044 50.1327 0 
-79.531 51.2393 0 
-75.0634 52.1919 0 
-75.9863 54.1664 0 
-84.1009 55.5947 0 
-82.2308 54.9108 0 
-77.0474 55.6791 0 
-85.7513 55.0464 0 
-79.5171 54.7389 0 
-74.2598 51.1431 0 
-74.7043 53.3582 0 
-81.5983 54.3955 0 
-75.4638 51.0452 0 
-73.8713 54.7069 0 
-75.7283 54.2858 0 
-80.1566 51.4958 0 
-79.7438 51.0481 0 
-76.6962 53.972 0 
-75.2868 54.8456 0 
-74.1207 54.7611 0 
-79.8674 54.416 0 
-72.8429 47.7296 0 
-74.9479 53.8253 0 
-89.191 55.7582 0 
-75.2335 52.7096 0 
-73.9962 47.3351 0 
-78.9211 54.3317 0 
-79.8108 50.6727 0 
-75.6172 49.1393 0 
-73.3125 51.9416 0 
-74.9393 54.7448 0 
-80.0925 55.883 0 
-84.7369 55.7939 0 
-87.6627 55.6698 0 
-72.3764 46.7281 0 
-76.2721 53.5997 0 
-72.613 50.5046 0 
-74.1744 54.4445 0 
-73.639 49.5909 0 
-86.7722 55.953 0 
-74.2848 48.4671 0 
-73.2332 52.0083 0 
-74.9723 52.4196 0 
-79.4724 55.0861 0 
-77.7506 50.2771 0 
-76.4335 48.766 0 
-75.6897 54.8949 0 
-83.3007 55.9598 0 
-83.2791 55.1754 0 
-79.4626 52.9762 0 
-80.0854 53.0415 0 
-72.4479 55.0403 0 
-86.1732 54.6184 0 
-73.7346 53.8578 0 
-77.519 50.1529 0 
-81.0976 53.2861 0 
-74.5593 49.7721 0 
-75.1798 51.2599 0 
-87.2437 54.7859 0 
-73.5138 54.9099 0 
-73.8984 47.5194 0 
-79.2999 53.7476 0 
-79.845 51.3511 0 
-72.9672 52.4281 0 
-80.0629 55.3169 0 
-81.504 51.6428 0 
-83.5377 54.6188 0 
-83.2776 53.2441 0 
-82.1773 52.8167 0 
-72.6957 46.6434 0 
-83.5378 55.7823 0 
-85.7915 54.0809 0 
-75.8533 55.0341 0 
-75.7471 51.2782 0 
-80.2372 51.6782 0 
-77.1772 54.9034 0 
-77.0243 52.2849 0 
-79.1674 52.5267 0 
-79.4008 52.1633 0 
-73.3076 50.2485 0 
-73.4284 54.4368 0 
-75.8919 50.3071 0 
-74.1716 51.3206 0 
-78.387 52.2293 0 
-85.1288 54.5303 0 
-79.9668 52.3141 0 
-75.0351 49.4706 0 
-82.3859 55.081 0 
-74.5171 51.2625 0 
-87.4582 55.0133 0 
-77.7187 50.6458 0 
-87.0104 55.2264 0 
-85.7295 55.7755 0 
-83.3631 53.1668 0 
-75.1897 53.3407 0 
-76.7283 53.0265 0 
-82.1101 52.1204 0 
-83.8166 55.7585 0 
-75.4325 54.9741 0 
-83.7306 55.9598 0 
-73.6088 52.5275 0 
-87.3722 54.8403 0 
-82.9258 53.7814 0 
-79.6437 54.8081 0 
-82.6194 55.2131 0 
-72.52 46.9813 0 
-75.9253 50.9862 0 
-81.3335 55.4715 0 
-81.2616 54.8423 0 
-82.6346 52.6871 0 
-80.8567 53.7228 0 
-72.4364 48.0228 0 
-73.6096 53.9294 0 
-87.4536 55.5338 0 
-76.3604 49.3545 0 
-73.68 55.5967 0 
-81.1895 51.5681 0 
-76.4585 52.9209 0 
-73.641 48.3629 0 
-72.3904 49.4254 0 
-82.2311 53.6739 0 
-74.6222 52.8374 0 
-78.8038 51.2074 0 
-77.2159 49.0569 0 
-73.5163 47.2153 0 
-77.9493 53.7328 0 
-74.0552 52.5861 0 
-76.6774 54.9926 0 
-76.015 51.6434 0 
-73.6673 51.7764 0 
-82.1552 55.6896 0 
-82.9578 53.9505 0 
-72.5843 50.0794 0 
-78.2719 50.9749 0 
-79.0239 52.6161 0 
-81.6662 52.7036 0 
-81.7497 55.8681 0 
-78.938 53.8136 0 
-79.6815 53.6817 0 
-73.8293 53.5549 0 
-82.8855 54.1401 0 
-75.8004 50.2028 0 
-80.8018 52.6567 0 
-72.4933 49.8203 0 
-73.1871 53.9041 0 
-80.3898 50.9876 0 
-73.3117 54.2889 0 
-77.2989 54.782 0 
-76.0246 52.8498 0 
-77.6181 53.3454 0 
-73.6358 52.5664 0 
-80.4562 54.6387 0 
-76.7542 49.9311 0 
-73.8914 49.0621 0 
-78.2589 50.091 0 
-84.577 55.2906 0 
-72.7885 54.5196 0 
-76.4876 49.5956 0 
-74.2415 51.9622 0 
-74.2081 49.8993 0 
-83.3991 55.6245 0 
-80.4734 55.2631 0 
-76.0677 51.6806 0 
-77.7799 53.7717 0 
-79.51 50.1882 0 
-80.3155 51.6305 0 
-75.1034 54.3848 0 
-72.6134 52.576 0 
-78.8435 51.8289 0 
-82.1263 54.4187 0 
-78.4707 54.0896 0 
-73.4794 53.4947 0 
-75.197 50.5151 0 
-84.0863 54.6726 0 
-77.3666 54.5183 0 
-86.2222 55.941 0 
-77.8715 50.747 0 
-85.6553 55.5374 0 
-76.6649 48.5432 0 
-84.3547 53.2781 0 
-87.2311 55.948 0 
-76.4075 55.7881 0 
-76.7347 55.7517 0 
-86.532 54.9597 0 
-76.4216 48.9836 0 
-76.3063 52.5748 0 
-74.4276 55.0763 0 
-78.7 55.4408 0 
-84.7009 55.5324 0 
-72.9135 47.8925 0 
-76.8051 50.3844 0 
-81.1141 52.9987 0 
-83.7921 55.5202 0 
-78.2975 53.4157 0 
-80.5369 55.2038 0 
-73.8945 47.6914 0 
-75.3596 55.27 0 
-75.5571 48.2356 0 
-80.5941 52.2195 0 
-75.9239 52.0556 0 
-73.1218 50.1086 0 
-78.7652 54.704 0 
-80.2005 52.1495 0 
-84.2195 54.948 0 
-72.5701 49.8067 0 
-76.2543 48.2922 0 
-79.1391 52.3908 0 
-81.7635 54.9971 0 
-76.997 51.0002 0 
-78.945 52.0657 0 
-79.7308 52.5897 0 
-82.0422 53.5456 0 
-80.8982 54.2165 0 
-76.2626 51.2338 0 
-75.1721 51.974 0 
-74.4724 51.4502 0 
-75.4643 50.7023 0 
-72.3743 49.7652 0 
-73.3381 49.2232 0 
-78.3768 51.1189 0 
-80.5136 52.5492 0 
-77.5262 54.9739 0 
-74.4 49.9307 0 
-79.9422 55.7599 0 
-75.3285 55.449 0 
-74.7664 47.6139 0 
-84.5287 54.0548 0 
-76.7154 50.7711 0 
-73.9356 50.4402 0 
-79.7393 50.6481 0 
-75.0451 53.816 0 
-82.2083 52.4924 0 
-74.7895 55.0362 0 
-77.4637 51.6341 0 
-81.979 52.6615 0 
-80.1388 54.1648 0 
-75.2565 49.7444 0 
-75.7561 52.3057 0 
-85.1429 54.6844 0 
-72.7277 55.9782 0 
-72.8323 48.0271 0 
-77.833 55.5631 0 
-75.5033 52.8993 0 
-72.4829 48.0105 0 
-82.4103 52.6091 0 
-82.7906 53.1252 0 
-79.8253 54.1551 0 
-82.618 53.561 0 
-78.8366 50.2883 0 
-74.2794 51.2294 0 
-80.6914 52.0508 0 
-72.5321 47.3147 0 
-78.0707 54.4652 0 
-79.7041 52.0819 0 
-84.068 53.435 0 
-78.0578 54.0953 0 
-73.025 50.0293 0 
-76.6193 53.8555 0 
-87.5311 55.5915 0 
-73.264 48.6817 0 
-75.5671 53.1473 0 
-73.7833 47.5683 0 
-87.9485 55.524 0 
-81.9369 53.7321 0 
-76.4676 52.586 0 
-75.1005 52.7027 0 
-85.4716 54.1945 0 
-74.2275 49.9456 0 
-81.941 52.4493 0 
-84.9708 54.5756 0 
-79.1307 52.8401 0 
-77.5965 52.7315 0 
-72.7649 53.7171 0 
-83.9313 53.2447 0 
-78.3964 55.2582 0 
-75.8101 51.6448 0 
-80.432 53.938 0 
-81.0448 51.9029 0 
-74.5861 50.8272 0 
-75.9001 52.2735 0 
-73.1078 51.404 0 
-82.7721 52.3083 0 
-77.3146 50.8443 0 
-76.1751 52.5397 0 
-76.4289 52.1015 0 
-77.7933 50.1434 0 
-77.0763 55.8701 0 
-80.4387 51.1798 0 
-82.3899 54.4485 0 
-80.9343 53.2987 0 
-80.2646 54.4007 0 
-86.5815 55.6202 0 
-86.4227 55.6865 0 
-75.0239 48.4868 0 
-84.9367 54.191 0 
-73.6422 50.9898 0 
-76.7518 50.7321 0 
-75.2083 51.1961 0 
-80.2914 51.5516 0 
-75.8377 49.9739 0 
-76.4085 49.3555 0 
-85.3097 54.6074 0 
-76.6288 50.1511 0 
-79.0424 55.9518 0 
-74.6897 50.6266 0 
-73.8038 55.1383 0 
-76.6072 52.7214 0 
-85.9148 54.6101 0 
-79.7777 54.524 0 
-74.0822 53.2922 0 
-75.7419 51.1081 0 
-75.8319 53.4313 0 
-80.1101 53.5523 0 
-73.2384 53.7739 0 
-74.3398 47.3892 0 
-77.8564 50.038 0 
-77.8425 54.3222 0 
-72.8725 55.1098 0 
-81.5355 53.9107 0 
-78.6248 49.72 0 
-80.2511 51.3091 0 
-74.5737 52.1657 0 
-84.2106 55.7417 0 
-84.2481 55.7931 0 
-76.8556 49.6048 0 
-81.4865 52.7287 0 
-72.8063 52.5163 0 
-85.1413 54.0988 0 
-75.0952 52.5978 0 
-78.8641 51.0838 0 
-82.0791 53.8486 0 
-73.5652 53.8703 0 
-82.3932 54.1253 0 
-73.0163 48.974 0 
-82.0976 52.1209 0 
-73.9445 49.9568 0 
-82.7114 52.2253 0 
-85.9999 54.0899 0 
-76.968 54.036 0 
-82.2101 53.5234 0 
-75.4398 54.7792 0 
-82.3588 53.4415 0 
-81.358 52.6677 0 
-73.8186 48.5632 0 
-79.1954 54.9547 0 
-74.9814 55.2112 0 
-73.2119 50.5643 0 
-74.1517 51.995 0 
-73.3744 51.6736 0 
-75.6588 53.0887 0 
-85.5961 55.1506 0 
-79.7894 53.5987 0 
-81.5168 54.118 0 
-80.497 53.1273 0 
-77.7405 52.6013 0 
-75.0773 52.8441 0 
-79.3335 50.3236 0 
-83.3413 53.7749 0 
-81.61 51.9633 0 
-72.4274 50.7649 0 
-77.1255 50.0103 0 
-80.6988 53.6867 0 
-78.3797 53.9779 0 
-75.6771 54.7127 0 
-84.0638 54.3543 0 
-73.6188 53.0868 0 
-74.0322 48.4082 0 
-78.0865 50.4478 0 
-76.0807 48.9727 0 
-76.84 52.396 0 
-84.4012 53.0734 0 
-73.2401 48.697 0 
-76.3798 51.1015 0 
-75.7932 52.7441 0 
-76.5696 52.0437 0 
-79.5744 50.5804 0 
-83.0596 55.6369 0 
-75.2361 47.6765 0 
-86.2027 55.8278 0 
-83.8922 54.7272 0 
-75.1566 54.5675 0 
-80.7768 51.5837 0 
-86.9747 54.4802 0 
-83.3628 52.6284 0 
-78.8219 50.2027 0 
-82.7559 53.8725 0 
-77.7683 53.1296 0 
-77.8908 50.2771 0 
-72.5784 52.9691 0 
-74.0343 48.7887 0 
-74.6256 51.6669 0 
-74.6035 54.0637 0 
-78.2303 54.1002 0 
-72.9187 53.1679 0 
-73.5921 50.1622 0 
-82.3951 52.5965 0 
-80.5009 53.1199 0 
-73.8815 55.8185 0 
-82.4721 52.4035 0 
-85.391 54.7168 0 
-77.3601 54.0609 0 
-75.2472 48.3592 0 
-77.052 54.5715 0 
-75.9469 53.7472 0 
-72.8583 55.6191 0 
-76.5526 50.5152 0 
-73.119 49.7501 0 
-79.2235 52.3861 0 
-77.7703 51.8821 0 
-84.7246 54.0548 0 
-74.3854 48.737 0 
-72.5656 48.2894 0 
-78.4449 50.6306 0 
-81.262 54.6646 0 
-73.416 48.3652 0 
-85.1295 54.7709 0 
-84.5283 55.843 0 
-75.5196 51.485 0 
-77.329 53.2449 0 
-78.7998 51.203 0 
-82.4074 53.916 0 
-73.1686 51.969 0 
-73.6052 47.3855 0 
-78.705 55.6827 0 
-79.4536 54.5737 0 
-75.698 50.2163 0 
-73.0613 52.7362 0 
-73.8746 53.8025 0 
-80.1507 54.012 0 
-81.6707 53.9089 0 
-73.9429 48.5859 0 
-72.6113 49.7578 0 
-77.0873 53.3067 0 
-75.4699 53.6046 0 
-72.6823 54.1859 0 
-73.4832 50.4144 0 
-72.7695 54.0391 0 
-86.1648 54.8422 0 
-73.6391 49.6798 0 
-88.0283 55.638 0 
-87.5003 55.6687 0 
-78.5622 55.5257 0 
-75.9919 49.3227 0 
-74.0979 49.9435 0 
-84.0761 54.5033 0 
-75.7254 51.8024 0 
-73.2203 53.2382 0 
-73.7479 50.3605 0 
-74.9261 50.8897 0 
-77.3699 53.7575 0 
-80.6151 45.5878 0 
-86.0239 44.0979 0 
-80.7556 44.3171 0 
-82.3604 42.0965 0 
-84.9613 45.2146 0 
-74.5761 44.8462 0 
-83.8634 45.196 0 
-79.0991 45.3999 0 
-77.6168 43.5584 0 
-82.2714 45.7577 0 
-79.6428 43.59 0 
-79.6754 43.8274 0 
-87.2752 45.2088 0 
-86.5491 45.1884 0 
-86.7838 44.4646 0 
-82.4468 44.5197 0 
-84.5424 45.4944 0 
-82.0225 42.3083 0 
-85.616 44.5036 0 
-79.5079 45.5367 0 
-76.7301 45.8182 0 
-78.0541 44.5445 0 
-82.3376 44.4673 0 
-86.7769 45.3302 0 
-84.6387 44.8558 0 
-83.4721 43.855 0 
-88.5877 45.6708 0 
-87.6921 45.1114 0 
-84.5929 43.2555 0 
-87.601 45.7484 0 
-78.9994 43.9444 0 
-86.3279 44.271 0 
-81.0416 44.1346 0 
-85.9883 45.7985 0 
-72.956 45.6566 0 
-87.5209 45.4945 0 
-84.3954 44.3432 0 
-81.4215 44.1289 0 
-80.8195 45.0447 0 
-84.9299 44.2248 0 
-82.3352 43.3941 0 
-76.4284 45.7831 0 
-85.9411 45.7783 0 
-82.3646 44.7225 0 
-77.184 43.4685 0 
-84.9971 43.3492 0 
-85.1187 45.7285 0 
-77.0921 44.5517 0 
-74.3868 44.9536 0 
-82.3743 45.621 0 
-83.0439 43.7961 0 
-77.7718 43.4437 0 
-77.4794 43.237 0 
-86.7908 45.2791 0 
-79.2361 43.8433 0 
-81.0092 45.2232 0 
-85.7763 44.1967 0 
-76.9825 44.6488 0 
-81.407 41.8913 0 
-80.9261 41.5054 0 
-83.7136 43.3307 0 
-86.4121 45.7496 0 
-79.7767 43.9561 0 
-80.6113 44.1751 0 
-81.0473 45.5244 0 
-82.3344 43.0504 0 
-80.2647 42.0455 0 
-88.4524 45.6668 0 
-78.4195 44.427 0 
-80.2979 43.7127 0 
-80.1641 45.1388 0 
-84.7026 45.7657 0 
-83.6009 43.919 0 
-83.0549 44.0381 0 
-79.3904 45.021 0 
-84.4133 43.3329 0 
-80.9078 45.0138 0 
-81.9554 44.2111 0 
-81.2288 41.8863 0 
-82.631 44.8788 0 
-77.308 45.3872 0 
-81.8089 41.4882 0 
-81.9571 44.546 0 
-74.7124 44.8807 0 
-82.1911 43.5677 0 
-77.8727 44.9924 0 
-84.4593 44.6812 0 
-87.2766 45.0167 0 
-78.8877 43.2849 0 
-84.8263 45.2437 0 
-85.108 43.5228 0 
-83.6625 45.9087 0 
-86.4308 44.1801 0 
-75.3396 44.333 0 
-78.8961 43.9237 0 
-80.6634 43.7931 0 
-77.1071 45.0774 0 
-84.6632 45.266 0 
-74.8632 45.5375 0 
-81.5965 45.9673 0 
-78.9481 45.8737 0 
-73.5961 45.3428 0 
-83.5151 43.9897 0 
-86.5599 44.6819 0 
-81.8723 42.8507 0 
-82.6861 42.5264 0 
-80.866 45.1382 0 
-85.1862 45.3254 0 
-83.1884 42.8208 0 
-84.5183 44.7158 0 
-80.5666 42.0388 0 
-86.025 44.1648 0 
-78.4798 45.749 0 
-74.5286 45.2434 0 
-82.0839 43.3186 0 
-82.2706 43.1473 0 
-77.2427 43.4911 0 
-77.6659 44.9901 0 
-78.9954 44.9178 0 
-74.2842 45.1657 0 
-80.6752 43.4996 0 
-81.9437 43.7199 0 
-74.7068 45.3898 0 
-80.7137 44.2092 0 
-82.0441 44.2469 0 
-77.2715 43.5282 0 
-77.9974 43.0854 0 
-82.8608 45.3786 0 
-88.0174 45.1283 0 
-87.2662 45.4243 0 
-79.0104 43.7148 0 
-80.4342 44.9117 0 
-80.9319 42.0994 0 
-79.7391 42.9328 0 
-80.7297 44.6028 0 
-88.0591 45.5869 0 
-84.947 45.261 0 
-81.6485 45.871 0 
-75.4856 45.5301 0 
-81.1481 45.4101 0 
-82.7566 42.9869 0 
-75.9803 44.4918 0 
-81.9288 44.3983 0 
-80.3385 44.4267 0 
-86.9673 45.7526 0 
-83.199 44.7573 0 
-75.9995 44.814 0 
-76.5254 44.5316 0 
-83.3992 45.8186 0 
-81.8813 44.3819 0 
-81.5435 42.7706 0 
-80.456 42.8764 0 
-78.9819 43.3817 0 
-80.77 44.2176 0 
-82.662 42.1378 0 
-84.9231 43.7469 0 
-76.273 44.6164 0 
-78.8998 44.5442 0 
-81.6215 45.3951 0 
-85.3851 44.5359 0 
-82.1361 43.4259 0 
-80.3997 43.7605 0 
-78.5396 45.3361 0 
-80.2078 42.3432 0 
-87.7047 45.3938 0 
-80.4585 45.8782 0 
-80.0689 41.6642 0 
-80.2897 44.0132 0 
-88.5518 45.3789 0 
-81.8086 41.4808 0 
-83.3307 44.327 0 
-79.8768 42.7969 0 
-83.9786 44.9904 0 
-74.9156 45.3384 0 
-79.616 44.9485 0 
-77.8973 45.8167 0 
-81.9955 42.7907 0 
-81.3917 43.2114 0 
-75.4746 45.0722 0 
-87.3826 45.0319 0 
-81.577 44.2622 0 
-82.7266 43.9488 0 
-80.4279 41.7025 0 
-83.2051 45.1835 0 
-81.647 45.0424 0 
-86.9205 44.9573 0 
-83.6113 45.2354 0 
-79.1096 43.0507 0 
-75.9513 44.3792 0 
-82.5692 45.4456 0 
-81.8814 44.3696 0 
-88.4942 45.7893 0 
-75.4938 44.8018 0 
-72.8981 45.81 0 
-80.5318 45.8224 0 
-87.0296 45.9022 0 
-80.3938 42.6606 0 
-79.2585 44.4903 0 
-86.6207 45.5389 0 
-79.6325 43.5251 0 
-81.487 43.4862 0 
-78.3667 45.1863 0 
-76.8758 44.9465 0 
-80.4609 45.0679 0 
-85.0382 45.1299 0 
-77.562 45.6942 0 
-81.3615 42.9197 0 
-80.3892 41.6802 0 
-82.1175 42.0822 0 
-83.7932 45.9139 0 
-74.1438 45.245 0 
-79.408 42.9967 0 
-78.1722 43.4166 0 
-79.1548 42.3986 0 
-81.4316 44.0262 0 
-77.2327 43.2432 0 
-81.4749 42.2195 0 
-79.9205 45.3796 0 
-78.4283 43.6765 0 
-88.3573 45.2641 0 
-79.4924 43.5148 0 
-83.1669 43.6557 0 
-83.1315 42.3686 0 
-77.2113 44.5231 0 
-78.3992 45.2605 0 
-76.5948 43.6295 0 
-81.3634 43.7378 0 
-76.474 45.6316 0 
-75.9827 45.648 0 
-79.4157 42.0241 0 
-82.559 44.1456 0 
-74.5082 45.4518 0 
-79.1306 44.7085 0 
-86.2824 44.7841 0 
-83.5744 45.6732 0 
-85.0846 45.8258 0 
-78.7997 42.7927 0 
-87.5607 44.81 0 
-77.7414 45.2377 0 
-82.886 43.1808 0 
-78.7528 45.1388 0 
-75.7933 45.0088 0 
-84.6035 44.9133 0 
-84.0426 45.0661 0 
-80.9028 43.4666 0 
-78.3668 44.1346 0 
-76.9851 45.5476 0 
-80.438 45.6116 0 
-86.7012 44.8268 0 
-79.6498 44.0198 0 
-80.7133 43.0417 0 
-81.3893 43.7173 0 
-87.2461 47.9507 0 
-76.8858 46.4523 0 
-88.7942 53.3156 0 
-85.1874 49.2719 0 
-86.2407 52.9991 0 
-83.9903 52.105 0 
-87.3219 48.9127 0 
-81.5819 46.6683 0 
-89.2988 51.2886 0 
-78.7722 49.1523 0 
-87.5935 53.107 0 
-85.3546 49.5226 0 
-85.195 48.1269 0 
-84.5251 48.5103 0 
-85.2511 46.7857 0 
-87.2717 48.8515 0 
-78.9822 49.2776 0 
-88.2959 51.1577 0 
-85.0318 50.5593 0 
-85.6259 49.6878 0 
-72.7538 46.1437 0 
-86.786 49.7197 0 
-83.3254 46.7311 0 
-79.9417 47.5719 0 
-74.2296 46.7317 0 
-85.9138 48.565 0 
-83.6193 47.6308 0 
-89.4957 51.7219 0 
-80.2231 46.9664 0 
-89.2679 47.2722 0 
-88.9356 55.4211 0 
-88.4456 46.6752 0 
-84.7861 51.4574 0 
-82.7296 50.4689 0 
-81.0337 46.3975 0 
-88.0729 54.3666 0 
-88.1422 51.9246 0 
-81.3008 47.642 0 
-88.2334 49.1948 0 
-86.9873 47.6273 0 
-81.1695 46.1743 0 
-84.2101 49.7564 0 
-83.6485 47.8158 0 
-87.1472 46.4646 0 
-88.7509 48.35 0 
-84.6942 51.4039 0 
-78.7662 48.1521 0 
-89.3942 48.0447 0 
-83.9373 49.7082 0 
-88.144 47.6211 0 
-89.1898 46.7184 0 
-79.5647 48.2452 0 
-84.2108 47.7792 0 
-76.5855 46.2708 0 
-85.8623 46.2964 0 
-88.2366 49.42 0 
-76.8935 46.8131 0 
-79.0595 47.984 0 
-82.4925 48.6354 0 
-87.8306 54.1059 0 
-81.6495 48.2811 0 
-75.9105 47.0393 0 
-88.4485 51.1562 0 
-81.7603 46.9222 0 
-81.1138 48.0864 0 
-85.5491 52.6205 0 
-77.2665 46.3446 0 
-80.2639 46.2797 0 
-88.3934 52.3682 0 
-80.261 48.5004 0 
-83.2999 47.1312 0 
-76.884 48.2825 0 
-88.6605 52.4305 0 
-78.833 46.2302 0 
-89.2292 46.8544 0 
-87.1812 48.083 0 
-88.9032 53.4428 0 
-88.5473 50.1054 0 
-83.0061 49.395 0 
-87.6634 53.0696 0 
-82.9661 50.6574 0 
-89.5558 52.8153 0 
-82.5306 46.0769 0 
-82.8308 46.6309 0 
-81.9378 46.392 0 
-89.4625 54.4646 0 
-83.487 52.1652 0 
-79.3342 47.464 0 
-78.2435 46.9674 0 
-86.9965 46.0174 0 
-88.9484 55.0277 0 
-81.9995 48.7993 0 
-83.7613 49.2916 0 
-82.0199 50.0667 0 
-78.7126 46.319 0 
-80.4782 49.3669 0 
-86.1166 52.8354 0 
-85.5313 53.5437 0 
-86.5182 52.0305 0 
-89.3463 48.3794 0 
-81.0938 49.5132 0 
-82.5265 48.554 0 
-78.1938 49.044 0 
-85.1729 52.4593 0 
-81.2313 50.6133 0 
-82.0913 49.7687 0 
-74.8643 47.4381 0 
-86.6039 47.8792 0 
-87.4467 51.8487 0 
-86.7132 50.0273 0 
-80.9213 48.6728 0 
-86.2669 49.6385 0 
-89.3249 52.4668 0 
-75.3485 47.6639 0 
-88.8907 53.3586 0 
-79.8656 46.1627 0 
-78.6699 49.5342 0 
-72.7885 46.1719 0 
-86.4593 48.3553 0 
-83.4909 48.975 0 
-78.9802 48.1494 0 
-85.4573 52.6323 0 
-79.1772 48.5865 0 
-85.7999 53.2435 0 
-75.8248 47.1669 0 
-80.6424 47.526 0 
-77.9457 48.1412 0 
-82.8153 48.5474 0 
-89.316 50.2714 0 
-80.6032 47.2635 0 
-88.3744 54.5891 0 
-82.2091 48.1154 0 
-82.2316 47.0093 0 
-86.1567 48.7178 0 
-86.5814 49.837 0 
-88.79 47.0282 0 
-82.9363 46.7757 0 
-83.9976 48.2975 0 
-84.6117 51.4804 0 
-79.8779 48.3233 0 
-82.6232 49.2712 0 
-87.1427 51.2211 0 
-78.7767 48.1223 0 
-86.1653 51.5011 0 
-81.9219 48.0898 0 
-88.3982 48.6264 0 
-74.2266 46.0306 0 
-88.9482 47.8765 0 
-85.3012 49.2886 0 
-84.9078 52.0619 0 
-82.3198 48.7201 0 
-83.1284 51.1773 0 
-80.1041 49.5244 0 
-89.2451 51.7906 0 
-82.305 49.3422 0 
-78.3477 46.3588 0 
-81.4157 51.1493 0 
-89.5224 53.9487 0 
-89.0208 48.9849 0 
-87.1786 47.0211 0 
-83.274 46.6209 0 
-81.9213 46.8886 0 
-86.0102 48.3323 0 
-88.4927 48.4636 0 
-87.9611 47.764 0 
-80.8102 49.4071 0 
-85.3653 52.9814 0 
-86.601 49.1352 0 
-80.0808 49.7467 0 
-84.5629 52.5105 0 
-84.3849 50.4879 0 
-74.9082 47.206 0 
-89.177 53.598 0 
-85.3359 53.0188 0 
-77.7778 47.4729 0 
-89.1042 53.748 0 
-84.0218 50.9687 0 
-77.716 48.5167 0 
-84.0958 49.9511 0 
-84.9945 52.5244 0 
-88.993 46.6961 0 
-88.2955 48.191 0 
-88.475 52.9952 0 
-81.1953 48.5921 0 
-83.2878 51.3306 0 
-87.6269 47.4549 0 
-78.6459 49.3811 0 
-89.2747 53.104 0 
-82.9308 47.7104 0 
-89.4524 49.4999 0 
-81.7402 51.4092 0 
-80.5744 47.5289 0 
-88.391 54.9587 0 
-86.6996 48.1972 0 
-86.9298 50.8082 0 
-87.7025 52.5174 0 
-81.5073 48.7592 0 
-87.5682 49.3491 0 
-88.0671 46.1509 0 
-86.8747 49.3087 0 
-82.798 47.4966 0 
-84.8144 48.5711 0 
-86.4225 49.915 0 
-83.3993 50.122 0 
-75.5158 46.8535 0 
-74.7028 46.9095 0 
-85.6493 46.6672 0 
-77.6976 48.2039 0 
-78.7005 48.7646 0 
-78.8961 47.3203 0 
-89.1084 49.3767 0 
-81.7903 49.7351 0 
-87.9379 48.2169 0 
-86.5342 47.1466 0 
-87.3741 47.3889 0 
-86.1661 47.2828 0 
-85.3549 47.0018 0 
-75.7968 46.152 0 
-88.7803 53.472 0 
-84.1013 47.4673 0 
-89.6208 50.9775 0 
-75.4677 47.2345 0 
-87.5403 51.3261 0 
-88.6031 51.0989 0 
-82.1803 50.3998 0 
-89.5823 49.6528 0 
-88.2512 51.9868 0 
-78.8353 48.8539 0 
-74.7352 46.7138 0 
-83.5648 48.8465 0 
-85.2973 50.428 0 
-83.9274 49.1305 0 
-86.3511 49.9562 0 
-81.4496 49.9639 0 
-82.8219 48.6887 0 
-79.4589 47.1839 0 
-82.412 48.5269 0 
-89.2439 47.569 0 
-84.125 48.2687 0 
-87.5889 54.3783 0 
-74.2232 46.012 0 
-84.2303 49.6853 0 
