ply
format ascii 1.0
comment Generated by the CGAL library
element vertex 955
property double x
property double y
property double z
property double nx
property double ny
property double nz
property uchar red
property uchar green
property uchar blue
end_header
-0.628689 -0.177607 -0.966894 -0.255177 87 139 165 
-0.637657 -0.110425 -0.999973 -0.00739579 87 139 165 
-0.301195 0.15472 0.240987 0.970528 87 139 165 
-0.178353 0.0867719 0.694059 0.719918 87 139 165 
-0.101608 -0.0507456 0.977114 0.212719 87 139 165 
-0.0957429 -0.0948539 0.998747 0.0500358 87 139 165 
-0.137914 0.0373363 0.843208 0.537587 87 139 165 
-0.603942 0.0225358 -0.875621 0.482999 87 139 165 
-0.0957078 -0.121268 0.998877 -0.0473879 87 139 165 
-0.187004 0.0947565 0.662154 0.749368 87 139 165 
-0.63068 -0.0472729 -0.974237 0.225527 87 139 165 
-0.349021 0.162144 0.0645938 0.997912 87 139 165 
-0.560966 0.080546 -0.717114 0.696956 87 139 165 
-0.53728 -0.319033 -0.629756 -0.776793 87 139 165 
-0.364427 -0.379543 0.00777072 -0.99997 87 139 165 
-0.296651 0.15355 0.257747 0.966213 87 139 165 
-0.205834 -0.326795 0.592702 -0.805422 87 139 165 
-0.609799 -0.228145 -0.897223 -0.441578 87 139 165 
-0.336804 -0.377916 0.109652 -0.99397 87 139 165 
-0.599373 0.0304962 -0.858771 0.512359 87 139 165 
-0.0957666 -0.122453 0.99866 -0.0517559 87 139 165 
-0.555122 0.0863788 -0.695559 0.718469 87 139 165 
-0.575159 -0.28159 -0.769461 -0.638693 87 139 165 
-0.30577 0.155814 0.224114 0.974563 87 139 165 
-0.479682 -0.354813 -0.417319 -0.90876 87 139 165 
-0.234939 -0.345474 0.485358 -0.874315 87 139 165 
-0.321011 0.158862 0.167902 0.985804 87 139 165 
-0.563443 -0.294804 -0.72625 -0.687431 87 139 165 
-0.187995 -0.312468 0.658499 -0.752581 87 139 165 
-0.215778 0.116934 0.556026 0.831165 87 139 165 
-0.319652 -0.375467 0.172914 -0.984937 87 139 165 
-0.635346 -0.0730379 -0.991448 0.130499 87 139 165 
-0.313025 0.157378 0.197356 0.980332 87 139 165 
-0.224023 0.122236 0.525619 0.85072 87 139 165 
-0.63329 -0.156931 -0.983863 -0.178921 87 139 165 
-0.321996 0.159028 0.164266 0.986416 87 139 165 
-0.121091 -0.223613 0.905259 -0.424861 87 139 165 
-0.632356 -0.0550275 -0.980418 0.196926 87 139 165 
-0.547778 0.0932295 -0.668474 0.743736 87 139 165 
-0.59199 -0.259024 -0.831539 -0.555467 87 139 165 
-0.398035 -0.377715 -0.116185 -0.993228 87 139 165 
-0.32121 0.158895 0.167168 0.985928 87 139 165 
-0.512994 0.119749 -0.540183 0.841547 87 139 165 
-0.213574 -0.332285 0.564155 -0.825669 87 139 165 
-0.632118 -0.162983 -0.979542 -0.20124 87 139 165 
-0.532659 -0.322697 -0.61271 -0.790308 87 139 165 
-0.147731 -0.268536 0.807001 -0.59055 87 139 165 
-0.633799 -0.154041 -0.985743 -0.16826 87 139 165 
-0.605236 0.0201624 -0.880393 0.474245 87 139 165 
-0.594877 -0.254609 -0.842189 -0.539183 87 139 165 
-0.257367 0.139762 0.402635 0.915361 87 139 165 
-0.102208 -0.0480563 0.974901 0.222637 87 139 165 
-0.12567 -0.232905 0.888369 -0.459131 87 139 165 
-0.359497 -0.37946 0.0259527 -0.999663 87 139 165 
-0.220185 0.119821 0.539772 0.841811 87 139 165 
-0.150252 -0.271925 0.797704 -0.603049 87 139 165 
-0.419697 0.157448 -0.196079 0.980588 87 139 165 
-0.467054 0.143389 -0.370742 0.928736 87 139 165 
-0.561431 -0.296906 -0.71883 -0.695186 87 139 165 
-0.153975 -0.276737 0.783972 -0.620797 87 139 165 
-0.157548 0.0643134 0.770793 0.637086 87 139 165 
-0.222073 0.12102 0.53281 0.846235 87 139 165 
-0.388736 -0.37864 -0.0818858 -0.996642 87 139 165 
-0.109077 -0.193438 0.949566 -0.313568 87 139 165 
-0.308542 0.156436 0.21389 0.976858 87 139 165 
-0.144655 0.0474049 0.818348 0.574723 87 139 165 
-0.121342 -0.224147 0.904331 -0.426831 87 139 165 
-0.604689 -0.238012 -0.878377 -0.477969 87 139 165 
-0.117286 -0.00170788 0.919289 0.393582 87 139 165 
-0.622373 -0.0186505 -0.943598 0.331093 87 139 165 
-0.11605 -0.00464425 0.923851 0.382752 87 139 165 
-0.0990506 -0.0640972 0.986548 0.163474 87 139 165 
-0.598607 -0.248613 -0.855945 -0.517067 87 139 165 
-0.172611 0.081068 0.715238 0.698881 87 139 165 
-0.435833 0.153705 -0.255593 0.966785 87 139 165 
-0.187409 0.095114 0.660659 0.750686 87 139 165 
-0.532628 -0.32272 -0.612598 -0.790395 87 139 165 
-0.344962 -0.378691 0.0795643 -0.99683 87 139 165 
-0.0969793 -0.0792288 0.994187 0.107665 87 139 165 
-0.0970768 -0.138499 0.993827 -0.110937 87 139 165 
-0.211601 0.162365 0.880283 0.474449 175 101 97 
-0.572989 -0.140145 -0.621962 -0.783047 175 101 97 
-0.270127 0.233672 0.637 0.770864 175 101 97 
-0.524138 0.266671 -0.418894 0.908035 175 101 97 
-0.183085 0.0598948 0.998824 0.048493 175 101 97 
-0.527193 0.265235 -0.431594 0.902068 175 101 97 
-0.317429 -0.167754 0.440371 -0.897816 175 101 97 
-0.317664 -0.167869 0.439393 -0.898295 175 101 97 
-0.553065 0.250837 -0.539138 0.842217 175 101 97 
-0.588786 -0.126437 -0.687627 -0.726064 175 101 97 
-0.662474 0.021783 -0.993939 -0.109933 175 101 97 
-0.292207 0.249894 0.545214 0.838297 175 101 97 
-0.649549 0.130164 -0.94021 0.340594 175 101 97 
-0.399976 -0.191196 0.0972341 -0.995262 175 101 97 
-0.31782 -0.167946 0.438743 -0.898612 175 101 97 
-0.643334 -0.0491676 -0.914376 -0.404866 175 101 97 
-0.597503 -0.117747 -0.723864 -0.689943 175 101 97 
-0.378815 -0.188175 0.185198 -0.982701 175 101 97 
-0.4049 0.288085 0.0767636 0.997049 175 101 97 
-0.643666 0.144873 -0.915756 0.401735 175 101 97 
-0.663574 0.0351054 -0.998511 -0.0545538 175 101 97 
-0.184253 0.0746185 0.993965 0.109698 175 101 97 
-0.660443 0.00740878 -0.985498 -0.169685 175 101 97 
-0.654688 0.114274 -0.961575 0.274541 175 101 97 
-0.647518 0.135566 -0.93177 0.363048 175 101 97 
-0.193427 -0.0224753 0.955833 -0.293909 175 101 97 
-0.41733 -0.19226 0.0250952 -0.999685 175 101 97 
-0.660096 0.00543918 -0.984054 -0.177873 175 101 97 
-0.631308 -0.0727338 -0.864387 -0.502828 175 101 97 
-0.295179 0.251796 0.53286 0.846203 175 101 97 
-0.530623 0.263561 -0.445851 0.895107 175 101 97 
-0.648752 0.13233 -0.936899 0.349599 175 101 97 
-0.255589 0.220631 0.69743 0.716653 175 101 97 
-0.465649 0.285049 -0.175761 0.984433 175 101 97 
-0.414933 -0.192188 0.035059 -0.999385 175 101 97 
-0.318246 -0.168153 0.436972 -0.899475 175 101 97 
-0.661217 0.0842668 -0.988716 0.149804 175 101 97 
-0.574516 0.235381 -0.628307 0.777966 175 101 97 
-0.467142 -0.18832 -0.181967 -0.983305 175 101 97 
-0.326692 0.268515 0.401864 0.915699 175 101 97 
-0.331318 -0.174029 0.382635 -0.9239 175 101 97 
-0.537727 0.259874 -0.475381 0.87978 175 101 97 
-0.387502 0.286106 0.149087 0.988824 175 101 97 
-0.530956 -0.166937 -0.447233 -0.894417 175 101 97 
-0.288044 0.247125 0.562519 0.826784 175 101 97 
-0.185719 0.0855829 0.987871 0.155275 175 101 97 
-0.222825 0.1811 0.833626 0.552329 175 101 97 
-0.417744 0.288729 0.0233744 0.999727 175 101 97 
-0.213929 0.166582 0.870608 0.491977 175 101 97 
-0.183172 0.0615788 0.998459 0.055493 175 101 97 
-0.277556 -0.143111 0.606117 -0.795376 175 101 97 
-0.601216 -0.113762 -0.739299 -0.673378 175 101 97 
-0.223034 0.181414 0.83276 0.553634 175 101 97 
-0.533871 -0.165454 -0.459353 -0.888254 175 101 97 
-0.609347 0.200816 -0.773098 0.634286 175 101 97 
-0.496899 -0.180823 -0.305663 -0.95214 175 101 97 
-0.663874 0.0429579 -0.99976 -0.021912 175 101 97 
-0.494381 -0.181616 -0.295196 -0.955437 175 101 97 
-0.649948 -0.0325955 -0.94187 -0.335978 175 101 97 
-0.576745 0.233558 -0.637576 0.770388 175 101 97 
-0.341759 0.274529 0.339233 0.940702 175 101 97 
-0.312388 0.261666 0.461327 0.88723 175 101 97 
-0.424945 0.288789 -0.00656159 0.999978 175 101 97 
-0.258746 0.223648 0.684307 0.729194 175 101 97 
-0.445897 0.287737 -0.0936541 0.995605 175 101 97 
-0.652313 -0.0256315 -0.9517 -0.30703 175 101 97 
-0.420918 0.288782 0.0101783 0.999948 175 101 97 
-0.572071 0.237329 -0.618144 0.786065 175 101 97 
-0.26431 -0.13225 0.661179 -0.750228 175 101 97 
-0.663032 0.0690233 -0.996257 0.0864387 175 101 97 
-0.183734 0.0693853 0.996125 0.0879437 175 101 97 
-0.371542 -0.186687 0.215431 -0.976519 175 101 97 
-0.658826 -0.00107015 -0.978776 -0.204931 175 101 97 
-0.540187 0.258526 -0.485609 0.874176 175 101 97 
-0.192178 0.114738 0.961023 0.276469 175 101 97 
-0.286465 0.246041 0.569084 0.822279 175 101 97 
-0.434836 0.288521 -0.047674 0.998863 175 101 97 
-0.225058 0.18441 0.824346 0.566087 175 101 97 
-0.59448 0.21732 -0.711298 0.70289 175 101 97 
-0.551803 0.25164 -0.533891 0.845553 175 101 97 
-0.191847 -0.0171185 0.962398 -0.271642 175 101 97 
-0.533498 0.262104 -0.457803 0.889053 175 101 97 
-0.511842 -0.175475 -0.367782 -0.929912 175 101 97 
-0.192499 -0.0193841 0.95969 -0.28106 175 101 97 
-0.235791 0.198851 0.779731 0.626115 175 101 97 
-0.395734 0.287202 0.114868 0.993381 175 101 97 
-0.337542 -0.176506 0.356763 -0.934195 175 101 97 
-0.66121 0.084318 -0.988683 0.150017 175 101 97 
-0.199272 -0.039252 0.931536 -0.363648 175 101 97 
-0.500351 -0.179686 -0.320013 -0.947413 175 101 97 
-0.658502 0.0990552 -0.977426 0.211278 175 101 97 
-0.633834 0.164741 -0.874888 0.484326 175 101 97 
-0.287397 -0.150225 0.56521 -0.824947 175 101 97 
-0.51638 -0.173627 -0.386645 -0.922229 175 101 97 
-0.622924 0.182574 -0.829534 0.558457 175 101 97 
-0.477262 0.282679 -0.224037 0.974581 175 101 97 
-0.201499 -0.0447567 0.922277 -0.386531 175 101 97 
-0.615496 0.192998 -0.798659 0.601784 175 101 97 
-0.467998 -0.18816 -0.185528 -0.982639 175 101 97 
-0.19751 -0.0345972 0.93886 -0.344299 175 101 97 
-0.244725 -0.112888 0.742592 -0.669744 175 101 97 
-0.66392 0.0506508 -0.999949 0.0100666 175 101 97 
-0.657604 -0.00658341 -0.973696 -0.227849 175 101 97 
-0.544348 0.25616 -0.502903 0.864343 175 101 97 
-0.18285 0.0530588 0.999798 0.0200762 175 101 97 
-0.51547 0.270465 -0.382862 0.923806 175 101 97 
-0.256293 -0.124855 0.694505 -0.719487 175 101 97 
-0.559342 0.246679 -0.565232 0.824932 175 101 97 
-0.199089 0.13524 0.932297 0.361695 175 101 97 
-0.18329 0.0635506 0.99797 0.0636897 175 101 97 
-0.663208 0.0295777 -0.99699 -0.0775318 175 101 97 
-0.19549 0.125324 0.947258 0.320473 175 101 97 
-0.54736 0.254378 -0.515426 0.856934 175 101 97 
-0.642099 0.148368 -0.909244 0.416264 175 101 97 
-0.191053 0.110696 0.965699 0.259666 175 101 97 
-0.269576 0.233216 0.639289 0.768966 175 101 97 
-0.400003 0.287657 0.0971206 0.995273 175 101 97 
-0.262146 -0.130319 0.670177 -0.742202 175 101 97 
-0.661984 0.0176778 -0.991903 -0.126998 175 101 97 
-0.188337 0.0995371 0.976991 0.213281 175 101 97 
-0.478166 0.28247 -0.227793 0.97371 175 101 97 
-0.19356 0.119368 0.955276 0.295714 175 101 97 
-0.63042 0.170706 -0.860695 0.509121 175 101 97 
-0.578316 0.232246 -0.644105 0.764937 175 101 97 
-0.195779 -0.0297149 0.946056 -0.324004 175 101 97 
-0.506478 0.273982 -0.345483 0.938425 175 101 97 
-0.379937 0.284842 0.180531 0.983569 175 101 97 
-0.485155 -0.184266 -0.256844 -0.966453 175 101 97 
-0.592642 -0.122702 -0.703658 -0.710539 175 101 97 
-0.57209 -0.140856 -0.618223 -0.786003 175 101 97 
-0.21418 0.167025 0.869564 0.49382 175 101 97 
-0.340447 0.274052 0.344686 0.938718 175 101 97 
-0.295011 -0.155232 0.533558 -0.845763 175 101 97 
-0.489278 -0.183131 -0.273987 -0.961734 175 101 97 
-0.432004 -0.192181 -0.0359024 -0.999355 175 101 97 
-0.33194 -0.174286 0.380048 -0.924967 175 101 97 
-0.659226 0.0955784 -0.980439 0.196825 175 101 97 
-0.198892 -0.0382724 0.933116 -0.359576 175 101 97 
-0.583206 0.228016 -0.664431 0.74735 175 101 97 
-0.663932 0.0482748 -1 0.000190001 175 101 97 
-0.507493 0.273605 -0.349704 0.93686 175 101 97 
-0.463211 -0.189014 -0.165628 -0.986188 175 101 97 
-0.487201 0.280171 -0.26535 0.964152 175 101 97 
-0.206282 0.151892 0.902394 0.430912 175 101 97 
-0.512844 0.271535 -0.371944 0.928255 175 101 97 
-0.436977 -0.191951 -0.0565752 -0.998398 175 101 97 
-0.631153 -0.0730005 -0.863741 -0.503937 175 101 97 
-0.464526 -0.188789 -0.171095 -0.985254 175 101 97 
-0.649994 0.128924 -0.942062 0.335438 175 101 97 
-0.662123 0.0187795 -0.992479 -0.122418 175 101 97 
-0.360537 0.280445 0.261178 0.965291 175 101 97 
0.701981 0.0370634 0.809313 0.587378 84 81 118 
0.499587 -0.117366 -0.780245 -0.625473 84 81 118 
0.634529 -0.159976 0.279562 -0.960128 84 81 118 
0.472856 -0.0555242 -0.990182 -0.139785 84 81 118 
0.703995 -0.109658 0.825133 -0.564938 84 81 118 
0.471671 -0.0336624 -0.999491 0.0319131 84 81 118 
0.68067 0.0599029 0.64194 0.766755 84 81 118 
0.615072 -0.164026 0.126749 -0.991935 84 81 118 
0.692216 0.0489376 0.732622 0.680636 84 81 118 
0.67013 0.067836 0.55916 0.82906 84 81 118 
0.557193 0.0825654 -0.327818 0.944741 84 81 118 
0.718303 -0.0820319 0.937505 -0.347971 84 81 118 
0.557351 -0.158072 -0.326579 -0.94517 84 81 118 
0.555749 -0.157506 -0.339163 -0.940728 84 81 118 
0.706801 -0.105377 0.847171 -0.531321 84 81 118 
0.661413 0.073218 0.4907 0.871329 84 81 118 
0.587196 -0.164511 -0.0921856 -0.995742 84 81 118 
0.540897 -0.151057 -0.455805 -0.89008 84 81 118 
0.50756 -0.1264 -0.717624 -0.696431 84 81 118 
0.68621 -0.130435 0.685451 -0.728119 84 81 118 
0.508738 0.0521461 -0.708376 0.705835 84 81 118 
0.473808 -0.0613023 -0.982708 -0.185164 84 81 118 
0.631312 -0.160867 0.254297 -0.967126 84 81 118 
0.618959 -0.163468 0.157278 -0.987554 84 81 118 
0.592337 -0.164882 -0.0518048 -0.998657 84 81 118 
0.700049 0.0396551 0.794141 0.607733 84 81 118 
0.675724 0.0638392 0.603095 0.797669 84 81 118 
0.72504 -0.0201411 0.990417 0.138106 84 81 118 
0.621772 0.0875363 0.17937 0.983782 84 81 118 
0.595442 -0.165005 -0.0274174 -0.999624 84 81 118 
0.691684 0.0495071 0.728441 0.685109 84 81 118 
0.506051 -0.124818 -0.72948 -0.684002 84 81 118 
0.699314 0.0406066 0.788367 0.615206 84 81 118 
0.706446 -0.105941 0.844379 -0.535747 84 81 118 
0.725998 -0.0459025 0.997936 -0.0642178 84 81 118 
0.610266 -0.164548 0.0890054 -0.996031 84 81 118 
0.578859 0.0880089 -0.157659 0.987494 84 81 118 
0.521534 -0.138827 -0.607881 -0.794028 84 81 118 
0.550796 -0.155603 -0.378061 -0.925781 84 81 118 
0.58848 -0.164623 -0.0821021 -0.996624 84 81 118 
0.487382 0.0236622 -0.876101 0.482128 84 81 118 
0.596148 0.0895709 -0.021878 0.999761 84 81 118 
0.533826 0.0716967 -0.511336 0.859381 84 81 118 
0.481838 -0.087734 -0.919644 -0.392754 84 81 118 
0.708975 0.0263296 0.864241 0.503078 84 81 118 
0.495528 0.0365672 -0.812127 0.583481 84 81 118 
0.648215 -0.155129 0.387049 -0.922059 84 81 118 
0.603853 0.0895063 0.0386345 0.999253 84 81 118 
0.591054 0.0893573 -0.0618815 0.998084 84 81 118 
0.71699 -0.0854203 0.927194 -0.374582 84 81 118 
0.66297 0.0723267 0.502927 0.864329 84 81 118 
0.725823 -0.0271783 0.996563 0.0828381 84 81 118 
0.72403 -0.0139967 0.982481 0.186363 84 81 118 
0.708999 -0.101739 0.864435 -0.502745 84 81 118 
0.647289 -0.155514 0.379771 -0.92508 84 81 118 
0.630702 -0.161026 0.249502 -0.968374 84 81 118 
0.715988 -0.0878297 0.919322 -0.393506 84 81 118 
0.723308 -0.010465 0.976812 0.214101 84 81 118 
0.488928 0.0263917 -0.863957 0.503565 84 81 118 
0.719171 -0.0796194 0.944322 -0.329024 84 81 118 
0.725072 -0.0550841 0.990664 -0.136329 84 81 118 
0.682151 0.0586435 0.653572 0.756864 84 81 118 
0.480244 0.0083731 -0.932158 0.362051 84 81 118 
0.725522 -0.0514201 0.994199 -0.107552 84 81 118 
0.676083 -0.139018 0.60592 -0.795525 84 81 118 
0.575346 -0.162849 -0.185247 -0.982692 84 81 118 
0.479372 0.00606184 -0.939007 0.343899 84 81 118 
0.52287 0.0643847 -0.597386 0.801954 84 81 118 
0.61313 -0.164259 0.1115 -0.993764 84 81 118 
0.671046 -0.142664 0.566354 -0.824162 84 81 118 
0.712932 -0.0944397 0.895322 -0.445419 84 81 118 
0.549589 -0.155103 -0.387543 -0.921851 84 81 118 
0.639978 -0.158256 0.322359 -0.946618 84 81 118 
0.692493 -0.12409 0.734797 -0.678287 84 81 118 
0.626574 0.086565 0.217083 0.976153 84 81 118 
0.484623 0.0183577 -0.897768 0.440468 84 81 118 
0.608394 -0.164701 0.0743057 -0.997236 84 81 118 
0.726243 -0.039812 0.999866 -0.0163846 84 81 118 
0.493527 0.0337 -0.827841 0.560963 84 81 118 
0.488821 0.0262082 -0.864796 0.502124 84 81 118 
0.0658447 0.960583 0.37546 0.926839 65 132 174 
-0.0381482 0.561733 -0.124887 -0.992171 65 132 174 
-0.156712 0.91732 -0.695338 0.718683 65 132 174 
-0.0460506 0.973013 -0.162908 0.986641 65 132 174 
-0.146457 0.926601 -0.645999 0.763339 65 132 174 
0.186874 0.708188 0.957773 -0.287524 65 132 174 
-0.174167 0.898186 -0.779321 0.626625 65 132 174 
-0.0666265 0.567361 -0.261906 -0.965093 65 132 174 
0.18133 0.692136 0.931102 -0.364758 65 132 174 
0.181946 0.842168 0.934065 0.357103 65 132 174 
0.0163466 0.973821 0.137306 0.990529 65 132 174 
0.0482306 0.966813 0.290712 0.956811 65 132 174 
0.0582 0.572389 0.338678 -0.940902 65 132 174 
0.15225 0.640837 0.791188 -0.611573 65 132 174 
0.0337124 0.970657 0.22086 0.975306 65 132 174 
-0.180366 0.890076 -0.809149 0.587603 65 132 174 
-0.0490256 0.563396 -0.177222 -0.984171 65 132 174 
0.037274 0.566078 0.237996 -0.971266 65 132 174 
-0.15117 0.922489 -0.668675 0.743555 65 132 174 
-0.202319 0.683986 -0.914773 -0.403969 65 132 174 
0.0875636 0.58561 0.479957 -0.877292 65 132 174 
-0.0176627 0.560178 -0.0263244 -0.999653 65 132 174 
-0.217629 0.736424 -0.988431 -0.15167 65 132 174 
-0.219498 0.753047 -0.997427 -0.0716923 65 132 174 
0.192908 0.801601 0.986804 0.161917 65 132 174 
0.0980768 0.591769 0.53054 -0.84766 65 132 174 
0.192414 0.804484 0.984428 0.175787 65 132 174 
0.184967 0.833725 0.9486 0.316478 65 132 174 
0.153329 0.893651 0.796376 0.604802 65 132 174 
0.193837 0.740557 0.991278 -0.131785 65 132 174 
-0.215829 0.809542 -0.979771 0.200124 65 132 174 
-0.201524 0.682208 -0.910947 -0.412524 65 132 174 
-0.12799 0.940542 -0.557148 0.830413 65 132 174 
-0.129218 0.939712 -0.563058 0.826417 65 132 174 
-0.138754 0.603084 -0.608938 -0.793218 65 132 174 
0.0387608 0.566448 0.245149 -0.969485 65 132 174 
-0.197498 0.673822 -0.891577 -0.45287 65 132 174 
0.0270829 0.56385 0.188963 -0.981984 65 132 174 
-0.0252563 0.975378 -0.0628596 0.998022 65 132 174 
-0.126961 0.941228 -0.552198 0.833713 65 132 174 
0.121222 0.608577 0.641899 -0.76679 65 132 174 
0.0184887 0.562383 0.147613 -0.989045 65 132 174 
-0.203686 0.687152 -0.92135 -0.388735 65 132 174 
0.0443362 0.567941 0.271974 -0.962304 65 132 174 
-0.203567 0.849025 -0.920775 0.390094 65 132 174 
0.16249 0.880573 0.840455 0.541881 65 132 174 
-0.140896 0.604751 -0.619244 -0.785198 65 132 174 
-0.219933 0.761494 -0.999518 -0.0310485 65 132 174 
0.0870183 0.585313 0.477333 -0.878722 65 132 174 
-0.21952 0.753358 -0.997533 -0.0701958 65 132 174 
0.105952 0.938946 0.568428 0.822733 65 132 174 
-0.219528 0.782426 -0.997571 0.06966 65 132 174 
-0.155855 0.617751 -0.691214 -0.72265 65 132 174 
-0.213133 0.714837 -0.966801 -0.255532 65 132 174 
-0.18477 0.652125 -0.830337 -0.557262 65 132 174 
-0.173405 0.636767 -0.775654 -0.631158 65 132 174 
0.14906 0.636814 0.775839 -0.630931 65 132 174 
0.16754 0.663569 0.86475 -0.502202 65 132 174 
-0.0394647 0.973992 -0.131221 0.991353 65 132 174 
-0.0595413 0.565571 -0.227817 -0.973704 65 132 174 
0.0586087 0.572537 0.340645 -0.940192 65 132 174 
-0.0950882 0.958542 -0.398846 0.917018 65 132 174 
0.0810545 0.953698 0.448639 0.893713 65 132 174 
0.173363 0.861584 0.892768 0.450516 65 132 174 
0.151198 0.896408 0.786125 0.618067 65 132 174 
0.0190771 0.973424 0.150444 0.988619 65 132 174 
-0.20524 0.844958 -0.928823 0.370524 65 132 174 
-0.198868 0.859327 -0.898166 0.439656 65 132 174 
-0.108756 0.5839 -0.464605 -0.885518 65 132 174 
-0.171239 0.634149 -0.765233 -0.643754 65 132 174 
0.173828 0.860657 0.895005 0.446057 65 132 174 
0.185434 0.703587 0.950847 -0.309662 65 132 174 
0.0489016 0.966608 0.293941 0.955824 65 132 174 
0.0186987 0.562414 0.148624 -0.988894 65 132 174 
0.0896603 0.949123 0.490045 0.871697 65 132 174 
0.149342 0.898734 0.777194 0.629261 65 132 174 
-0.185797 0.882225 -0.835278 0.549827 65 132 174 
0.15406 0.892682 0.799893 0.600143 65 132 174 
0.181689 0.693058 0.932828 -0.360323 65 132 174 
0.111648 0.601029 0.595834 -0.803107 65 132 174 
-0.150984 0.613239 -0.667782 -0.744357 65 132 174 
-0.0938837 0.576834 -0.393051 -0.919517 65 132 174 
-0.0850282 0.962609 -0.350443 0.936584 65 132 174 
-0.218327 0.79452 -0.991793 0.127851 65 132 174 
-0.185705 0.882364 -0.834838 0.550496 65 132 174 
-0.0222698 0.56035 -0.0484906 -0.998824 65 132 174 
-0.172983 0.899646 -0.773623 0.633646 65 132 174 
-0.213627 0.819151 -0.969179 0.246359 65 132 174 
-0.110144 0.95126 -0.471287 0.88198 65 132 174 
-0.182537 0.648866 -0.819594 -0.572945 65 132 174 
-0.19118 0.873594 -0.861179 0.508303 65 132 174 
0.0392315 0.566568 0.247414 -0.96891 65 132 174 
0.195604 0.763561 0.999777 -0.021104 65 132 174 
-0.102929 0.954937 -0.436568 0.899671 65 132 174 
0.134454 0.915234 0.705563 0.708647 65 132 174 
-0.132202 0.93764 -0.577413 0.816452 65 132 174 
-0.131785 0.597961 -0.575406 -0.817868 65 132 174 
0.188553 0.714099 0.965855 -0.259084 65 132 174 
-0.0684185 0.567856 -0.270529 -0.962712 65 132 174 
-0.105688 0.953572 -0.449845 0.893106 65 132 174 
0.0588102 0.57261 0.341614 -0.93984 65 132 174 
-0.195443 0.866013 -0.88169 0.471829 65 132 174 
-0.213911 0.81802 -0.970546 0.240918 65 132 174 
-0.0649185 0.566905 -0.253689 -0.967286 65 132 174 
0.194638 0.747456 0.995128 -0.0985929 65 132 174 
0.0709771 0.958424 0.400153 0.916448 65 132 174 
0.00143289 0.975342 0.0655515 0.997849 65 132 174 
0.0278256 0.971901 0.192536 0.98129 65 132 174 
-0.216762 0.804675 -0.984263 0.176709 65 132 174 
0.0374425 0.566119 0.238807 -0.971067 65 132 174 
0.0105892 0.974537 0.109606 0.993975 65 132 174 
0.0325702 0.564983 0.215364 -0.976534 65 132 174 
-0.217029 0.803155 -0.985548 0.169395 65 132 174 
-0.00419404 0.975635 0.0384783 0.999259 65 132 174 
-0.0933666 0.576614 -0.390563 -0.920576 65 132 174 
0.175719 0.679135 0.904106 -0.427308 65 132 174 
0.195499 0.76001 0.99927 -0.0381908 65 132 174 
-0.0650499 0.56694 -0.254321 -0.96712 65 132 174 
0.127422 0.613979 0.671728 -0.740798 65 132 174 
-0.155848 0.918151 -0.69118 0.722682 65 132 174 
0.194718 0.78761 0.995515 0.0946025 65 132 174 
-0.0464557 0.972945 -0.164858 0.986317 65 132 174 
0.0760957 0.956106 0.424781 0.905296 65 132 174 
0.154608 0.643947 0.802531 -0.596611 65 132 174 
-0.215541 0.724971 -0.978388 -0.206777 65 132 174 
-0.123549 0.592455 -0.535783 -0.844356 65 132 174 
-0.00522303 0.975672 0.0335275 0.999438 65 132 174 
0.102116 0.594362 0.549972 -0.835183 65 132 174 
0.0377271 0.969706 0.240176 0.970729 65 132 174 
-0.219431 0.783759 -0.997102 0.0760728 65 132 174 
-0.725944 -0.199768 0.915796 0.401643 65 130 82 
-0.954512 -0.476538 -0.221267 -0.975213 65 130 82 
-1.03505 -0.12309 -0.621901 0.783096 65 130 82 
-0.854999 -0.47384 0.27378 -0.961792 65 130 82 
-1.10977 -0.303186 -0.993614 -0.112834 65 130 82 
-0.736264 -0.179452 0.864456 0.502709 65 130 82 
-0.767499 -0.422249 0.709071 -0.705137 65 130 82 
-0.815788 -0.458058 0.468845 -0.883281 65 130 82 
-0.766764 -0.421506 0.712725 -0.701443 65 130 82 
-1.11063 -0.293528 -0.997899 -0.0647894 65 130 82 
-1.03005 -0.119252 -0.597073 0.802187 65 130 82 
-0.825628 -0.0980678 0.419894 0.907573 65 130 82 
-0.726777 -0.197894 0.91165 0.410967 65 130 82 
-1.04448 -0.429939 -0.668853 -0.743395 65 130 82 
-0.976114 -0.0906601 -0.32873 0.944424 65 130 82 
-0.712252 -0.316424 0.983906 -0.178687 65 130 82 
-1.01049 -0.106392 -0.499763 0.866162 65 130 82 
-1.07175 -0.399902 -0.804486 -0.593971 65 130 82 
-1.11063 -0.26758 -0.997931 0.0642961 65 130 82 
-0.801937 -0.449982 0.53775 -0.843105 65 130 82 
-0.778134 -0.432195 0.656162 -0.75462 65 130 82 
-0.75046 -0.402749 0.793836 -0.608132 65 130 82 
-0.729908 -0.191273 0.896074 0.443904 65 130 82 
-1.11053 -0.294898 -0.997433 -0.0716022 65 130 82 
-1.11033 -0.263473 -0.996404 0.0847273 65 130 82 
-0.966069 -0.473553 -0.27876 -0.960361 65 130 82 
-0.782635 -0.435995 0.63377 -0.773521 65 130 82 
-1.09485 -0.359562 -0.919414 -0.39329 65 130 82 
-0.792691 -0.443717 0.583747 -0.811935 65 130 82 
-0.70986 -0.262115 0.995806 0.0914848 65 130 82 
-1.07942 -0.172267 -0.842655 0.538454 65 130 82 
-1.00637 -0.104076 -0.479241 0.877684 65 130 82 
-1.1008 -0.217138 -0.949015 0.315231 65 130 82 
-0.921991 -0.481165 -0.0594871 -0.998229 65 130 82 
-1.03733 -0.124932 -0.633272 0.773929 65 130 82 
-1.00473 -0.103192 -0.471094 0.882083 65 130 82 
-1.10808 -0.314957 -0.985203 -0.171391 65 130 82 
-0.709569 -0.295393 0.997253 -0.0740658 65 130 82 
-0.866314 -0.0843003 0.217492 0.976062 65 130 82 
-1.05551 -0.41923 -0.723695 -0.69012 65 130 82 
-1.00003 -0.46025 -0.447705 -0.894181 65 130 82 
-0.792567 -0.443628 0.584362 -0.811493 65 130 82 
-1.04208 -0.432063 -0.656917 -0.753963 65 130 82 
-1.10256 -0.338299 -0.957778 -0.28751 65 130 82 
-0.802347 -0.110766 0.535708 0.844403 65 130 82 
-0.823995 -0.098832 0.428016 0.903771 65 130 82 
-0.716772 -0.225211 0.961425 0.275068 65 130 82 
-0.912645 -0.0795054 -0.0129924 0.999916 65 130 82 
-0.880476 -0.479336 0.147041 -0.98913 65 130 82 
-0.89547 -0.0800167 0.0724473 0.997372 65 130 82 
-0.721873 -0.351238 0.936046 -0.351878 65 130 82 
-0.70913 -0.287229 0.99944 -0.0334518 65 130 82 
-0.747013 -0.162896 0.810982 0.585071 65 130 82 
-1.04716 -0.133519 -0.682149 0.731213 65 130 82 
-1.11033 -0.263542 -0.996433 0.0843864 65 130 82 
-1.11091 -0.28789 -0.999325 -0.0367405 65 130 82 
-1.10398 -0.333347 -0.96483 -0.262876 65 130 82 
-1.10853 -0.312243 -0.987457 -0.157891 65 130 82 
-1.0867 -0.184611 -0.87888 0.477043 65 130 82 
-0.97497 -0.470743 -0.32304 -0.946385 65 130 82 
-1.1073 -0.241859 -0.981346 0.192251 65 130 82 
-0.771335 -0.135005 0.689987 0.723822 65 130 82 
-0.721758 -0.210078 0.936619 0.350351 65 130 82 
-0.92598 -0.080122 -0.0793317 0.996848 65 130 82 
-0.997337 -0.0994368 -0.434312 0.900762 65 130 82 
-0.887983 -0.480308 0.109693 -0.993966 65 130 82 
-1.0798 -0.172866 -0.844554 0.535471 65 130 82 
-0.840277 -0.0919798 0.347017 0.937859 65 130 82 
-0.730957 -0.189185 0.890855 0.454287 65 130 82 
-1.10178 -0.340856 -0.953866 -0.300233 65 130 82 
-0.912021 -0.0794983 -0.00988517 0.999951 65 130 82 
-0.781451 -0.125993 0.639665 0.768654 65 130 82 
-0.724003 -0.356664 0.925448 -0.378874 65 130 82 
-1.03396 -0.438777 -0.616494 -0.787359 65 130 82 
-1.019 -0.449427 -0.542056 -0.840343 65 130 82 
-0.955353 -0.476346 -0.225452 -0.974254 65 130 82 
-1.11012 -0.299819 -0.995373 -0.0960817 65 130 82 
-0.738272 -0.384934 0.854465 -0.519509 65 130 82 
-1.04019 -0.433696 -0.647479 -0.762084 65 130 82 
-0.792466 -0.117454 0.584865 0.81113 65 130 82 
-0.920726 -0.481236 -0.0531915 -0.998584 65 130 82 
-0.99048 -0.0962876 -0.400198 0.916429 65 130 82 
-0.945535 -0.478361 -0.176612 -0.984281 65 130 82 
-0.710127 -0.301596 0.99448 -0.104926 65 130 82 
-0.720119 -0.346383 0.944773 -0.327726 65 130 82 
-0.930819 -0.480443 -0.103402 -0.99464 65 130 82 
-0.939874 -0.479294 -0.148449 -0.98892 65 130 82 
-0.709031 -0.282812 0.999934 -0.0114768 65 130 82 
-0.924058 -0.0799783 -0.0697694 0.997563 65 130 82 
-1.01145 -0.106946 -0.504507 0.863408 65 130 82 
-1.07916 -0.171865 -0.841374 0.540453 65 130 82 
-1.10327 -0.335876 -0.961314 -0.275456 65 130 82 
-0.78251 -0.435892 0.634392 -0.773011 65 130 82 
-1.01033 -0.454715 -0.498923 -0.866646 65 130 82 
-0.752051 -0.404799 0.785919 -0.618329 65 130 82 
-0.842407 -0.0912056 0.336425 0.94171 65 130 82 
-0.709089 -0.275132 0.999643 0.0267276 65 130 82 
-1.06511 -0.408405 -0.771467 -0.63627 65 130 82 
-0.760448 -0.414786 0.744148 -0.668014 65 130 82 
-0.931097 -0.480414 -0.104783 -0.994495 65 130 82 
-1.11046 -0.295845 -0.997084 -0.0763125 65 130 82 
-0.8957 -0.0800001 0.0713054 0.997455 65 130 82 
-0.825384 -0.462828 0.42111 -0.90701 65 130 82 
-0.806235 -0.452648 0.51637 -0.856366 65 130 82 
-0.862282 -0.475767 0.237552 -0.971375 65 130 82 
-0.812671 -0.456368 0.484353 -0.874873 65 130 82 
-0.75774 -0.411707 0.75762 -0.652696 65 130 82 
-0.976415 -0.470244 -0.330229 -0.943901 65 130 82 
-1.06931 -0.157868 -0.792339 0.610081 65 130 82 
-0.715363 -0.330614 0.968432 -0.249278 65 130 82 
-0.94252 -0.478878 -0.161613 -0.986854 65 130 82 
-0.710336 -0.303494 0.993439 -0.114364 65 130 82 
-0.863228 -0.475996 0.232847 -0.972513 65 130 82 
-0.724045 -0.356767 0.92524 -0.379382 65 130 82 
-1.05324 -0.421574 -0.712393 -0.701781 65 130 82 
-0.769372 -0.136901 0.69975 0.714387 65 130 82 
-0.84036 -0.0919491 0.346604 0.938011 65 130 82 
-1.05925 -0.145807 -0.742288 0.670081 65 130 82 
-0.872648 -0.0829955 0.185982 0.982553 65 130 82 
-0.980282 -0.0921627 -0.349466 0.936949 65 130 82 
-0.813334 -0.104275 0.481052 0.876692 65 130 82 
-0.873509 -0.0828346 0.1817 0.983354 65 130 82 
-0.712858 -0.241398 0.980894 0.194545 65 130 82 
-0.951113 -0.477279 -0.204361 -0.978896 65 130 82 
-0.903699 -0.0795883 0.031512 0.999503 65 130 82 
-0.766019 -0.420745 0.716433 -0.697656 65 130 82 
0.141465 0.773412 0.690169 -0.723648 146 188 77 
0.0723027 0.733467 0.281893 -0.959446 146 188 77 
-0.0667361 1.0387 -0.538881 0.842382 146 188 77 
-0.144216 0.88136 -0.99626 -0.0864081 146 188 77 
-0.0408916 0.739749 -0.386316 -0.922367 146 188 77 
-0.126468 0.972741 -0.891493 0.453034 146 188 77 
-0.122599 0.979922 -0.86865 0.495425 146 188 77 
0.17743 0.968962 0.902482 0.430727 146 188 77 
-0.103516 0.785113 -0.756001 -0.654571 146 188 77 
0.185248 0.842401 0.948629 -0.316391 146 188 77 
0.132623 1.02644 0.637977 0.770056 146 188 77 
0.0200297 0.726658 -0.0266856 -0.999644 146 188 77 
0.154577 1.00458 0.767576 0.640957 146 188 77 
-0.0193478 0.732384 -0.259139 -0.96584 146 188 77 
-0.14433 0.909251 -0.996934 0.0782416 146 188 77 
0.182819 0.835604 0.934291 -0.356511 146 188 77 
-0.135614 0.951167 -0.94548 0.32568 146 188 77 
-0.144825 0.893141 -0.999858 -0.0168589 146 188 77 
-0.10869 1.00061 -0.786544 0.617535 146 188 77 
0.0780759 0.735276 0.315973 -0.948768 146 188 77 
0.0675886 1.05984 0.254064 0.967187 146 188 77 
-0.114148 0.993256 -0.818761 0.574135 146 188 77 
0.011258 1.06487 -0.0784662 0.996917 146 188 77 
0.0737701 0.733906 0.290555 -0.956858 146 188 77 
-0.0832043 0.765287 -0.636096 -0.77161 146 188 77 
0.0666024 1.06009 0.248242 0.968698 146 188 77 
0.0360956 0.726991 0.0681548 -0.997675 146 188 77 
-0.0228296 0.733358 -0.279692 -0.96009 146 188 77 
0.0864009 1.0537 0.365117 0.930962 146 188 77 
0.0738163 1.05807 0.290828 0.956775 146 188 77 
-0.104585 0.78636 -0.762311 -0.647211 146 188 77 
0.167606 0.986724 0.844486 0.535577 146 188 77 
-0.144849 0.896572 -0.999994 0.00339455 146 188 77 
0.183118 0.955601 0.936056 0.351852 146 188 77 
0.181314 0.960195 0.925409 0.378971 146 188 77 
-0.142865 0.921852 -0.988284 0.152626 146 188 77 
-0.00305681 0.728862 -0.16297 -0.986631 146 188 77 
0.0265316 0.726609 0.0116965 -0.999932 146 188 77 
0.164269 0.991784 0.824785 0.565446 146 188 77 
0.180589 0.830057 0.921128 -0.389259 146 188 77 
0.029791 1.06532 0.0309378 0.999521 146 188 77 
0.010503 0.727181 -0.0829234 -0.996556 146 188 77 
-0.0432832 0.740772 -0.400434 -0.916326 146 188 77 
0.141017 0.772986 0.687524 -0.726162 146 188 77 
-0.0959034 0.776887 -0.711061 -0.70313 146 188 77 
-0.0846907 1.02547 -0.644871 0.764292 146 188 77 
0.185637 0.948411 0.95093 0.309406 146 188 77 
0.193669 0.905753 0.99834 0.0575916 146 188 77 
-0.0872841 1.02323 -0.66018 0.751107 146 188 77 
-0.0620486 1.04159 -0.51121 0.859456 146 188 77 
-0.0587978 1.04347 -0.492019 0.870584 146 188 77 
-0.0625618 1.04128 -0.514239 0.857647 146 188 77 
0.142718 0.774619 0.697567 -0.716519 146 188 77 
0.169112 0.807689 0.853374 -0.521298 146 188 77 
0.177482 0.968854 0.902786 0.430091 146 188 77 
0.187465 0.942418 0.961721 0.27403 146 188 77 
-0.063035 0.750997 -0.517033 -0.855966 146 188 77 
-0.000402814 1.06355 -0.147303 0.989091 146 188 77 
-0.128927 0.824297 -0.906009 -0.423259 146 188 77 
0.151373 1.0083 0.74866 0.662954 146 188 77 
-0.0552054 0.746547 -0.470813 -0.882233 146 188 77 
-0.0125287 0.730705 -0.218884 -0.975751 146 188 77 
-0.051732 0.744745 -0.450309 -0.892873 146 188 77 
0.028133 0.726635 0.0211501 -0.999776 146 188 77 
-0.0379713 0.738557 -0.369077 -0.929399 146 188 77 
-0.101568 1.00909 -0.744498 0.667625 146 188 77 
-0.102215 0.783628 -0.74832 -0.663338 146 188 77 
0.173555 0.976582 0.879603 0.475708 146 188 77 
0.100892 0.744775 0.45066 -0.892696 146 188 77 
-0.0196076 1.05954 -0.260672 0.965427 146 188 77 
-0.0222697 0.733196 -0.276387 -0.961046 146 188 77 
0.193826 0.902479 0.999268 0.0382659 146 188 77 
0.0658922 1.06027 0.24405 0.969763 146 188 77 
0.0435166 0.727663 0.111963 -0.993712 146 188 77 
-0.108876 0.791625 -0.787644 -0.616131 146 188 77 
-0.116341 0.801944 -0.831706 -0.555217 146 188 77 
-0.0955438 1.01547 -0.708939 0.70527 146 188 77 
-0.084286 0.766186 -0.642481 -0.766301 146 188 77 
0.180963 0.961046 0.923334 0.383997 146 188 77 
0.127093 0.76116 0.605332 -0.795973 146 188 77 
0.179259 0.826995 0.913278 -0.407336 146 188 77 
0.010634 0.72717 -0.0821498 -0.99662 146 188 77 
0.140818 1.0192 0.68635 0.727272 146 188 77 
-0.0491 0.743446 -0.434772 -0.900541 146 188 77 
0.155277 1.00373 0.771707 0.635978 146 188 77 
-0.144014 0.912798 -0.99507 0.0991771 146 188 77 
-0.00537341 0.729261 -0.176645 -0.984275 146 188 77 
-0.0692678 1.03704 -0.553826 0.832632 146 188 77 
-0.00235979 0.728749 -0.158855 -0.987302 146 188 77 
-0.0273214 0.734735 -0.306208 -0.951965 146 188 77 
0.10312 1.04607 0.463813 0.885933 146 188 77 
0.0344743 0.726888 0.0585838 -0.998282 146 188 77 
0.0798814 1.05611 0.326631 0.945152 146 188 77 
-0.1444 0.908334 -0.997345 0.072827 146 188 77 
-0.136582 0.843722 -0.951194 -0.308592 146 188 77 
0.160413 0.997179 0.802022 0.597294 146 188 77 
0.10396 1.04563 0.46877 0.88332 146 188 77 
-0.0762891 1.03211 -0.595274 0.803523 146 188 77 
0.00925437 0.72729 -0.0902942 -0.995915 146 188 77 
-0.126111 0.818554 -0.889383 -0.457164 146 188 77 
0.193809 0.902908 0.999168 0.0407938 146 188 77 
0.153432 1.00593 0.760813 0.648972 146 188 77 
-0.09543 1.01558 -0.708267 0.705945 146 188 77 
-0.0670391 1.0385 -0.540669 0.841235 146 188 77 
-0.133236 0.95764 -0.931443 0.363888 146 188 77 
0.138857 0.770977 0.674777 -0.738022 146 188 77 
0.580609 0.720631 0.479667 0.877451 80 94 179 
0.59787 0.578243 0.675435 -0.737419 80 94 179 
0.611539 0.692383 0.83046 0.557078 80 94 179 
0.611295 0.593781 0.827685 -0.561193 80 94 179 
0.514036 0.728028 -0.275356 0.961342 80 94 179 
0.62469 0.660979 0.979609 0.200913 80 94 179 
0.594174 0.711486 0.633513 0.773732 80 94 179 
0.623139 0.619192 0.962013 -0.273003 80 94 179 
0.454765 0.671439 -0.947571 0.319547 80 94 179 
0.4863 0.714461 -0.589915 0.807466 80 94 179 
0.613096 0.689979 0.848111 0.529818 80 94 179 
0.455859 0.612031 -0.935161 -0.354223 80 94 179 
0.615645 0.685626 0.877023 0.480448 80 94 179 
0.543056 0.731309 0.0537701 0.998553 80 94 179 
0.54892 0.730797 0.120279 0.99274 80 94 179 
0.508735 0.5602 -0.335479 -0.942048 80 94 179 
0.450969 0.655313 -0.990619 0.136654 80 94 179 
0.455228 0.672778 -0.942312 0.334736 80 94 179 
0.622222 0.670358 0.951618 0.307283 80 94 179 
0.626488 0.643237 1 -0.000306159 80 94 179 
0.480939 0.576312 -0.650721 -0.759317 80 94 179 
0.566674 0.559775 0.321632 -0.946865 80 94 179 
0.485439 0.713823 -0.599679 0.800241 80 94 179 
0.593117 0.712338 0.621521 0.783397 80 94 179 
0.461107 0.60068 -0.875644 -0.482957 80 94 179 
0.610459 0.592571 0.818209 -0.57492 80 94 179 
0.487881 0.715589 -0.571986 0.820263 80 94 179 
0.56148 0.72834 0.262716 0.964873 80 94 179 
0.515122 0.558195 -0.263034 -0.964787 80 94 179 
0.451749 0.660022 -0.981772 0.190061 80 94 179 
0.506689 0.560957 -0.358677 -0.933462 80 94 179 
0.48896 0.570198 -0.559755 -0.828658 80 94 179 
0.541557 0.731377 0.0367667 0.999324 80 94 179 
0.58348 0.567536 0.512227 -0.85885 80 94 179 
0.452357 0.662904 -0.974876 0.222749 80 94 179 
0.588478 0.715777 0.568918 0.822394 80 94 179 
0.552506 0.55624 0.160943 -0.986964 80 94 179 
0.62089 0.674182 0.936505 0.350654 80 94 179 
0.525142 0.730447 -0.149394 0.988778 80 94 179 
0.625603 0.655726 0.989961 0.141344 80 94 179 
0.609864 0.694794 0.811453 0.584417 80 94 179 
0.487325 0.571329 -0.578294 -0.815828 80 94 179 
0.488986 0.716347 -0.559452 0.828863 80 94 179 
0.574111 0.562683 0.405978 -0.913883 80 94 179 
0.451498 0.627855 -0.984612 -0.174754 80 94 179 
0.537555 0.555093 -0.0086227 -0.999963 80 94 179 
0.613922 0.597897 0.857482 -0.514515 80 94 179 
0.594844 0.575595 0.641115 -0.767444 80 94 179 
0.450908 0.654864 -0.991307 0.131568 80 94 179 
0.520703 0.72966 -0.199745 0.979848 80 94 179 
0.608189 0.697042 0.792462 0.609922 80 94 179 
0.620668 0.674767 0.933993 0.357291 80 94 179 
0.487418 0.571263 -0.577234 -0.816578 80 94 179 
0.486729 0.714772 -0.585056 0.810993 80 94 179 
0.626394 0.647337 0.998932 0.0462008 80 94 179 
-0.850023 -0.118204 -0.793964 -0.607965 116 144 176 
-0.742276 -0.203852 -0.413183 -0.910648 116 144 176 
-0.406891 -0.126002 0.772081 -0.635524 116 144 176 
-0.363219 0.160358 0.926422 0.376488 116 144 176 
-0.642609 -0.228609 -0.0609542 -0.998141 116 144 176 
-0.908318 0.0522524 -0.999985 -0.00556349 116 144 176 
-0.895414 -0.030665 -0.954379 -0.298597 116 144 176 
-0.342742 0.0399057 0.998789 -0.0491971 116 144 176 
-0.355735 0.139671 0.95287 0.303378 116 144 176 
-0.872927 -0.0832074 -0.874911 -0.484284 116 144 176 
-0.401169 0.226469 0.792306 0.610124 116 144 176 
-0.889918 0.154211 -0.934956 0.354764 116 144 176 
-0.793208 -0.173978 -0.59318 -0.80507 116 144 176 
-0.556734 -0.220687 0.242531 -0.970144 116 144 176 
-0.711154 0.323469 -0.303198 0.952928 116 144 176 
-0.904156 0.00544643 -0.985275 -0.170978 116 144 176 
-0.357467 -0.0372797 0.946749 -0.321974 116 144 176 
-0.906434 0.0864688 -0.993324 0.115359 116 144 176 
-0.390063 0.210996 0.831554 0.555444 116 144 176 
-0.453413 -0.170899 0.607671 -0.794189 116 144 176 
-0.382694 -0.0917076 0.857596 -0.514324 116 144 176 
-0.401343 0.226695 0.79169 0.610923 116 144 176 
-0.904992 0.0971146 -0.988229 0.152982 116 144 176 
-0.515601 -0.20698 0.387895 -0.921704 116 144 176 
-0.782986 0.28882 -0.557054 0.830476 116 144 176 
-0.343927 0.0831937 0.9946 0.103784 116 144 176 
-0.764329 -0.19266 -0.491118 -0.871093 116 144 176 
-0.410379 -0.130158 0.759756 -0.650209 116 144 176 
-0.667602 -0.225965 -0.149282 -0.988795 116 144 176 
-0.877361 -0.0748727 -0.890579 -0.454829 116 144 176 
-0.771731 -0.188337 -0.517278 -0.855818 116 144 176 
-0.55317 -0.219771 0.255127 -0.966907 116 144 176 
-0.540867 0.323879 0.298606 0.954376 116 144 176 
-0.498859 -0.199283 0.447063 -0.894502 116 144 176 
-0.907465 0.0758399 -0.996969 0.0777958 116 144 176 
-0.772883 0.29529 -0.521349 0.853344 116 144 176 
-0.904201 0.0057054 -0.985433 -0.170063 116 144 176 
-0.416768 -0.137371 0.737175 -0.675702 116 144 176 
-0.366323 -0.0600458 0.915451 -0.40243 116 144 176 
-0.411856 -0.131869 0.754537 -0.656257 116 144 176 
-0.45773 -0.174137 0.592415 -0.805633 116 144 176 
-0.686622 0.330077 -0.216501 0.976282 116 144 176 
-0.8884 0.158123 -0.929593 0.368588 116 144 176 
-0.895949 0.13659 -0.956269 0.292488 116 144 176 
-0.908025 0.0408505 -0.998948 -0.0458583 116 144 176 
-0.536885 -0.214947 0.312677 -0.94986 116 144 176 
-0.696403 0.327725 -0.251066 0.96797 116 144 176 
-0.555306 -0.220326 0.247577 -0.968868 116 144 176 
-0.364453 0.163346 0.92206 0.387047 116 144 176 
-0.853959 -0.112938 -0.807874 -0.589355 116 144 176 
-0.822016 -0.149629 -0.694989 -0.71902 116 144 176 
-0.833915 -0.137413 -0.737039 -0.67585 116 144 176 
-0.462983 0.285561 0.57385 0.818961 116 144 176 
-0.804072 0.273212 -0.631573 0.775316 116 144 176 
-0.804566 -0.165155 -0.63332 -0.77389 116 144 176 
-0.632887 0.336688 -0.0265965 0.999646 116 144 176 
-0.903825 0.00357514 -0.984104 -0.177591 116 144 176 
-0.406091 -0.125025 0.774911 -0.632071 116 144 176 
-0.902536 0.110758 -0.979551 0.201197 116 144 176 
-0.345273 0.0940565 0.989842 0.142174 116 144 176 
-0.905261 0.0123153 -0.989181 -0.146703 116 144 176 
-0.38716 0.206561 0.841813 0.539769 116 144 176 
-0.903992 0.103145 -0.984694 0.174293 116 144 176 
-0.882525 0.171869 -0.90883 0.417168 116 144 176 
-0.593935 0.335038 0.111061 0.993814 116 144 176 
-0.59435 0.335084 0.109595 0.993976 116 144 176 
-0.684447 -0.222898 -0.208812 -0.977956 116 144 176 
-0.657198 0.334992 -0.112512 0.99365 116 144 176 
-0.423793 0.252417 0.712348 0.701826 116 144 176 
-0.907564 0.0745381 -0.997318 0.0731954 116 144 176 
-0.664477 0.334072 -0.138239 0.990399 116 144 176 
-0.71884 -0.213248 -0.33036 -0.943855 116 144 176 
-0.427302 0.255916 0.699949 0.714193 116 144 176 
-0.548154 -0.218399 0.272851 -0.962056 116 144 176 
-0.362924 -0.0519774 0.927463 -0.373916 116 144 176 
-0.902042 -0.00545868 -0.977805 -0.209517 116 144 176 
-0.369954 0.175624 0.902621 0.430437 116 144 176 
-0.400592 -0.118064 0.794344 -0.607469 116 144 176 
-0.899318 -0.0169893 -0.968177 -0.250267 116 144 176 
-0.37523 0.186121 0.883975 0.467534 116 144 176 
-0.90533 0.0127843 -0.989425 -0.145045 116 144 176 
-0.898637 -0.0195752 -0.965769 -0.259405 116 144 176 
-0.358601 0.148201 0.942742 0.333524 116 144 176 
-0.419942 -0.140777 0.725959 -0.687738 116 144 176 
-0.606148 -0.228482 0.0678989 -0.997692 116 144 176 
-0.574019 -0.224439 0.181444 -0.983401 116 144 176 
-0.38125 -0.0892717 0.8627 -0.505716 116 144 176 
-0.846447 0.230429 -0.781328 0.624121 116 144 176 
-0.464643 -0.179062 0.567984 -0.82304 116 144 176 
-0.68935 0.329458 -0.226141 0.974095 116 144 176 
-0.406798 0.233542 0.77241 0.635124 116 144 176 
-0.908022 0.0668603 -0.998939 0.0460617 116 144 176 
-0.843191 0.23443 -0.76982 0.638261 116 144 176 
-0.908226 0.0464161 -0.999657 -0.0261891 116 144 176 
-0.894645 -0.0330854 -0.951661 -0.307151 116 144 176 
-0.36365 -0.0537607 0.924897 -0.380219 116 144 176 
-0.656805 -0.227383 -0.111126 -0.993806 116 144 176 
-0.550347 0.326664 0.265102 0.96422 116 144 176 
-0.813996 0.26474 -0.666643 0.745377 116 144 176 
-0.558008 0.328656 0.238029 0.971258 116 144 176 
-0.907907 0.0691555 -0.998532 0.0541729 116 144 176 
-0.906266 0.0197732 -0.992732 -0.120346 116 144 176 
-0.803832 0.273407 -0.630725 0.776006 116 144 176 
-0.401516 0.226919 0.791079 0.611714 116 144 176 
-0.34426 0.0214258 0.993423 -0.114506 116 144 176 
-0.823734 0.255607 -0.701061 0.713101 116 144 176 
-0.401915 0.227434 0.789667 0.613535 116 144 176 
-0.893235 0.14499 -0.94668 0.322175 116 144 176 
-0.421436 0.249995 0.720679 0.693269 116 144 176 
-0.38357 0.200812 0.854498 0.519454 116 144 176 
-0.534894 0.321937 0.319713 0.947514 116 144 176 
-0.827417 -0.144266 -0.714075 -0.700069 116 144 176 
-0.90299 -0.000848346 -0.981155 -0.193224 116 144 176 
-0.522035 0.317249 0.365158 0.930946 116 144 176 
-0.729211 0.317043 -0.367011 0.930217 116 144 176 
-0.690529 -0.221529 -0.230306 -0.973118 116 144 176 
-0.892216 0.147933 -0.943077 0.332575 116 144 176 
-0.899836 -0.0149548 -0.970007 -0.243077 116 144 176 
-0.751851 0.306943 -0.44702 0.894524 116 144 176 
-0.565122 0.330302 0.212887 0.977077 116 144 176 
-0.891194 0.150781 -0.939466 0.342641 116 144 176 
-0.461686 0.284647 0.578436 0.815728 116 144 176 
-0.906079 0.0182595 -0.992069 -0.125696 116 144 176 
-0.743716 0.310847 -0.418271 0.908322 116 144 176 
-0.628592 0.33677 -0.0114179 0.999935 116 144 176 
-0.792243 0.282339 -0.589769 0.807572 116 144 176 
-0.678129 -0.224172 -0.186484 -0.982458 116 144 176 
-0.751309 0.307213 -0.445107 0.895478 116 144 176 
-0.39329 -0.10807 0.820148 -0.572151 116 144 176 
-0.617571 -0.229028 0.0275301 -0.999621 116 144 176 
-0.697705 -0.219731 -0.255667 -0.966765 116 144 176 
-0.894644 0.14074 -0.951659 0.307156 116 144 176 
-0.807476 0.270394 -0.643603 0.765359 116 144 176 
-0.541394 0.324043 0.296741 0.954958 116 144 176 
-0.344059 0.0844328 0.994133 0.108164 116 144 176 
-0.588996 0.334442 0.128515 0.991708 116 144 176 
-0.723802 0.319113 -0.347895 0.937534 116 144 176 
-0.363573 -0.0535719 0.925171 -0.379551 116 144 176 
-0.343145 0.0332908 0.997363 -0.0725745 116 144 176 
-0.626033 -0.229135 -0.00237631 -0.999997 116 144 176 
-0.342764 0.0394515 0.998709 -0.0508025 116 144 176 
-0.851413 -0.116373 -0.798879 -0.601492 116 144 176 
-0.639264 -0.228794 -0.0491329 -0.998792 116 144 176 
-0.771082 0.296381 -0.514985 0.857199 116 144 176 
-0.399712 -0.116908 0.797452 -0.603382 116 144 176 
-0.352578 -0.0213849 0.964028 -0.265801 116 144 176 
-0.742458 0.311423 -0.413827 0.910356 116 144 176 
-0.648359 -0.228199 -0.0812754 -0.996692 116 144 176 
-0.429139 -0.150047 0.693455 -0.7205 116 144 176 
-0.884146 -0.060619 -0.914558 -0.404456 116 144 176 
-0.852131 -0.115415 -0.801417 -0.598106 116 144 176 
-0.87881 -0.0719951 -0.8957 -0.44466 116 144 176 
-0.597227 -0.227733 0.0994252 -0.995045 116 144 176 
-0.472632 0.292031 0.53975 0.841825 116 144 176 
-0.465494 0.2873 0.564977 0.825107 116 144 176 
-0.402948 -0.121102 0.786017 -0.618205 116 144 176 
-0.739081 0.312931 -0.401893 0.915687 116 144 176 
-0.725006 0.318663 -0.35215 0.935944 116 144 176 
-0.776432 0.293086 -0.533893 0.845552 116 144 176 
-0.376275 -0.080426 0.88028 -0.474455 116 144 176 
-0.694114 -0.220656 -0.242975 -0.970032 116 144 176 
-0.626788 -0.229132 -0.00504318 -0.999987 116 144 176 
-0.48498 0.299511 0.496111 0.868259 116 144 176 
-0.34295 0.0361705 0.998051 -0.0623976 116 144 176 
-0.904751 0.00900875 -0.987377 -0.158388 116 144 176 
-0.38818 -0.100487 0.838207 -0.545353 116 144 176 
-0.899141 0.125326 -0.967549 0.252682 116 144 176 
-0.526579 -0.211333 0.3491 -0.937086 116 144 176 
-0.48923 0.301891 0.481093 0.87667 116 144 176 
-0.629038 0.336765 -0.0129943 0.999916 116 144 176 
-0.683613 -0.223074 -0.205864 -0.978581 116 144 176 
-0.696176 0.327784 -0.250262 0.968178 116 144 176 
-0.394675 0.217691 0.815253 0.579105 116 144 176 
-0.886458 0.162895 -0.922728 0.385451 116 144 176 
-0.56952 -0.223571 0.197343 -0.980335 116 144 176 
-0.713675 -0.215 -0.312107 -0.950047 116 144 176 
-0.834883 0.244005 -0.740462 0.672098 116 144 176 
0.93951 -0.56393 0.245552 -0.969383 128 125 137 
0.833461 -0.526504 -0.799601 -0.600532 128 125 137 
0.997243 -0.406708 0.814536 0.580113 128 125 137 
1.01121 -0.434569 0.952182 0.30553 128 125 137 
0.853999 -0.384184 -0.597197 0.802094 128 125 137 
0.825458 -0.51405 -0.878475 -0.477789 128 125 137 
1.01606 -0.465548 1 0.000215605 128 125 137 
1.00424 -0.41804 0.883504 0.468425 128 125 137 
0.814396 -0.449578 -0.987503 0.157603 128 125 137 
0.908804 -0.566872 -0.0570676 -0.99837 128 125 137 
1.00685 -0.423318 0.909175 0.416413 128 125 137 
0.94801 -0.369763 0.329324 0.944217 128 125 137 
0.885145 -0.562669 -0.290238 -0.956954 128 125 137 
1.00666 -0.422913 0.907337 0.420404 128 125 137 
0.832788 -0.525597 -0.806236 -0.591594 128 125 137 
0.818998 -0.431558 -0.942148 0.335198 128 125 137 
0.986864 -0.536792 0.71225 -0.701926 128 125 137 
0.98298 -0.54053 0.673965 -0.738763 128 125 137 
1.01078 -0.433247 0.947904 0.318556 128 125 137 
0.958871 -0.374273 0.436367 0.899769 128 125 137 
0.975236 -0.546922 0.597645 -0.801761 128 125 137 
1.00842 -0.504208 0.92466 -0.380793 128 125 137 
1.01163 -0.495213 0.956374 -0.292147 128 125 137 
0.83464 -0.528042 -0.787988 -0.615691 128 125 137 
0.817603 -0.495372 -0.955893 -0.293714 128 125 137 
0.853752 -0.384368 -0.599626 0.80028 128 125 137 
1.01392 -0.44482 0.978867 0.2045 128 125 137 
1.006 -0.509613 0.900881 -0.434066 128 125 137 
0.878807 -0.560516 -0.352702 -0.935736 128 125 137 
0.84731 -0.38962 -0.663113 0.748519 128 125 137 
0.829284 -0.410637 -0.840775 0.541385 128 125 137 
0.853473 -0.384578 -0.602376 0.798213 128 125 137 
0.963597 -0.37672 0.482943 0.875652 128 125 137 
0.921761 -0.364356 0.0706325 0.997502 128 125 137 
0.946952 -0.3694 0.318894 0.94779 128 125 137 
0.994071 -0.40249 0.783272 0.621679 128 125 137 
0.853948 -0.546918 -0.597695 -0.801724 128 125 137 
0.963606 -0.554415 0.483034 -0.875602 128 125 137 
0.814087 -0.479491 -0.990544 -0.137194 128 125 137 
0.98471 -0.538914 0.691014 -0.722841 128 125 137 
0.946978 -0.369409 0.319155 0.947703 128 125 137 
0.975284 -0.384253 0.598117 0.801409 128 125 137 
1.00443 -0.418401 0.885381 0.464867 128 125 137 
0.901769 -0.364917 -0.126399 0.991979 128 125 137 
0.815316 -0.486531 -0.97843 -0.206578 128 125 137 
0.904023 -0.566485 -0.104185 -0.994558 128 125 137 
0.959308 -0.556654 0.44067 -0.897669 128 125 137 
0.965056 -0.5536 0.497315 -0.86757 128 125 137 
0.848619 -0.542659 -0.650217 -0.759748 128 125 137 
0.816384 -0.440069 -0.967903 0.251325 128 125 137 
