1.259654 70.011187 45.878576 -0.981999 0.085590 0.168381
1.428953 69.399290 47.176962 -0.981999 0.085590 0.168381
1.083467 64.291310 47.243544 -0.984730 0.042393 0.168849
1.109280 65.918880 46.985455 -0.984730 0.042393 0.168849
0.869562 61.972655 46.578194 -0.984730 0.042393 0.168849
0.629961 65.878690 44.200152 -0.984730 0.042393 0.168849
0.560968 63.240257 44.460215 -0.984730 0.042393 0.168849
0.576346 60.015423 45.359556 -0.984730 0.042393 0.168849
0.878323 57.040061 47.160250 -0.985615 -0.000884 0.169001
0.716258 59.545560 46.228190 -0.985615 -0.000884 0.169001
0.539734 58.924282 45.195451 -0.985615 -0.000884 0.169001
0.823097 54.261313 46.823633 -0.985616 -0.000885 0.169000
0.764629 53.551676 46.478932 -0.985616 -0.000885 0.169000
0.905236 52.509788 47.090558 -0.984655 -0.044159 0.168835
1.003329 50.294423 47.083206 -0.984655 -0.044159 0.168835
0.845844 50.586256 46.241075 -0.984655 -0.044159 0.168835
0.889681 48.997759 46.081262 -0.984655 -0.044159 0.168836
0.602803 47.986008 44.143553 -0.984655 -0.044159 0.168836
0.618860 49.901087 44.738093 -0.984655 -0.044159 0.168836
1.290798 45.301293 47.065779 -0.981848 -0.087352 0.168354
1.093705 46.755810 46.671018 -0.981848 -0.087352 0.168354
1.095394 46.754946 46.680418 -0.981848 -0.087352 0.168354
1.201625 42.842996 45.270223 -0.981848 -0.087351 0.168355
0.878567 44.490250 44.240829 -0.981848 -0.087351 0.168355
2.018894 36.898031 46.060788 -0.977203 -0.130381 0.167559
1.357989 39.782772 44.451070 -0.977203 -0.130381 0.167559
1.422187 39.993849 44.989715 -0.977203 -0.130381 0.167559
2.134008 35.836310 45.905988 -0.977203 -0.130381 0.167558
2.076302 36.239360 45.883065 -0.977203 -0.130381 0.167558
1.641112 37.135755 44.042540 -0.977203 -0.130381 0.167558
2.847992 31.364538 45.927500 -0.970726 -0.173167 0.166448
2.978831 31.558165 46.891993 -0.970726 -0.173167 0.166448
2.685917 31.142372 44.751140 -0.970726 -0.173168 0.166447
2.672179 30.897052 44.415793 -0.970726 -0.173168 0.166447
2.927344 29.549300 44.501760 -0.970726 -0.173168 0.166447
4.324689 24.214259 46.227953 -0.962430 -0.215630 0.165025
3.733742 27.038122 46.471336 -0.962430 -0.215630 0.165025
4.116387 24.805716 45.785959 -0.962430 -0.215630 0.165025
4.248853 22.846186 43.998074 -0.962430 -0.215630 0.165024
3.821650 24.909410 44.202530 -0.962430 -0.215630 0.165024
5.968574 17.073104 45.378570 -0.952329 -0.257690 0.163293
5.441254 18.927928 45.230293 -0.952329 -0.257690 0.163293
4.687761 20.703255 43.637513 -0.952329 -0.257690 0.163294
6.490215 15.120689 45.339726 -0.952329 -0.257690 0.163294
6.069315 15.937711 44.174356 -0.952329 -0.257690 0.163294
7.052040 13.259139 45.231900 -0.940444 -0.299269 0.161256
7.211782 13.028426 45.735342 -0.940444 -0.299269 0.161256
7.853386 9.953365 43.770291 -0.940444 -0.299269 0.161256
7.246073 11.822387 43.697086 -0.940444 -0.299269 0.161256
0.903599 72.612957 41.075418 -0.994899 0.085661 0.053282
0.753025 71.065067 40.391210 -0.996330 0.085590 0.000000
0.536331 68.542581 39.557503 -0.996330 0.085590 0.000000
0.587220 69.134973 39.627650 -0.996330 0.085590 0.000000
0.312520 65.572523 38.352706 -0.999101 0.042392 0.000000
0.129801 61.266221 40.191179 -0.999101 0.042392 0.000000
0.341700 66.260234 39.504882 -0.999101 0.042392 0.000000
0.130381 61.279893 38.344961 -0.999101 0.042392 0.000000
0.164973 62.095148 39.564840 -0.999101 0.042392 0.000000
0.069113 58.091614 39.033514 -1.000000 -0.000884 -0.000000
0.069634 57.502862 40.532271 -1.000000 -0.000884 -0.000000
0.067749 59.634872 38.275778 -1.000000 -0.000884 -0.000000
0.070282 56.769405 38.708339 -1.000000 -0.000884 -0.000000
0.071097 55.847017 38.744042 -1.000000 -0.000884 -0.000000
0.068073 59.268886 37.702697 -1.000000 -0.000884 -0.000000
0.076972 53.219585 39.802196 -0.999025 -0.044159 -0.000000
0.173370 51.038748 38.669676 -0.999025 -0.044159 -0.000000
0.099123 52.718461 39.774656 -0.999025 -0.044159 -0.000000
0.310877 47.927879 37.685758 -0.999025 -0.044159 -0.000000
0.359918 46.818405 39.542317 -0.999025 -0.044159 -0.000000
0.366642 46.737160 38.269214 -0.996177 -0.087352 -0.000000
0.542947 44.726547 40.333943 -0.996177 -0.087352 -0.000000
0.592262 44.164145 39.852766 -0.996177 -0.087352 -0.000000
0.805584 41.731383 40.000374 -0.996177 -0.087352 -0.000000
0.618246 43.867825 38.721036 -0.996177 -0.087352 -0.000000
0.790009 41.909004 39.871860 -0.996177 -0.087352 -0.000000
1.005932 39.742709 39.142590 -0.991464 -0.130381 -0.000000
1.074231 39.223338 38.836686 -0.991464 -0.130381 -0.000000
1.197632 38.284955 38.129659 -0.991464 -0.130381 -0.000000
1.307115 37.452415 38.445479 -0.991464 -0.130381 -0.000000
1.483755 36.109180 38.824264 -0.991464 -0.130381 -0.000000
2.487855 29.839489 40.390642 -0.984893 -0.173167 -0.000000
2.412857 30.266042 39.378559 -0.984893 -0.173167 -0.000000
2.468349 29.950429 40.124674 -0.984893 -0.173167 -0.000000
2.007944 32.569003 37.955616 -0.984893 -0.173167 -0.000000
2.641435 28.965993 39.569144 -0.984893 -0.173167 -0.000000
3.989893 22.559112 40.006662 -0.976475 -0.215630 -0.000000
3.161078 26.312374 38.608977 -0.976475 -0.215630 -0.000000
3.714878 23.804509 40.129105 -0.976475 -0.215630 -0.000000
4.168500 21.750298 39.710688 -0.976475 -0.215630 -0.000000
4.116172 21.987266 37.855101 -0.976475 -0.215630 -0.000000
4.455352 20.570816 38.172840 -0.966228 -0.257690 -0.000000
4.800465 19.276788 39.280147 -0.966228 -0.257690 -0.000000
4.523759 20.314320 39.805680 -0.966228 -0.257690 -0.000000
5.889202 15.194481 38.155895 -0.966228 -0.257690 -0.000000
5.128927 18.045195 37.900982 -0.966228 -0.257690 -0.000000
6.436729 13.399805 38.455881 -0.954169 -0.299269 -0.000000
7.393657 10.348798 40.273545 -0.954169 -0.299269 -0.000000
7.242152 10.831846 39.084267 -0.954169 -0.299269 -0.000000
7.716686 9.318871 39.590464 -0.954169 -0.299269 -0.000000
7.626160 9.607499 38.263010 -0.954169 -0.299269 -0.000000
0.615158 69.089313 37.111040 -0.992741 0.085590 -0.084495
0.622022 68.602279 36.537055 -0.992741 0.085590 -0.084495
0.595282 66.922519 35.149700 -0.992741 0.085590 -0.084495
0.317813 63.314024 36.281695 -0.995502 0.042392 -0.084730
0.145356 61.329562 37.315036 -0.995502 0.042392 -0.084730
0.287132 64.259755 37.115344 -0.995502 0.042392 -0.084730
0.319089 60.459037 34.838262 -0.995502 0.042393 -0.084729
0.412578 63.127426 35.074924 -0.995502 0.042393 -0.084729
0.211118 59.968021 35.861171 -0.995502 0.042393 -0.084729
0.071254 59.384822 37.424891 -0.996397 -0.000884 -0.084805
0.102325 57.238729 37.082201 -0.996397 -0.000884 -0.084805
0.245632 53.661147 35.435769 -0.996397 -0.000885 -0.084807
0.195231 55.436109 36.009425 -0.996397 -0.000885 -0.084807
0.333956 58.772513 34.344739 -0.996397 -0.000885 -0.084807
0.182395 52.738413 36.476034 -0.995425 -0.044159 -0.084724
0.293962 48.577379 37.334001 -0.995425 -0.044159 -0.084724
0.330372 50.195941 36.062605 -0.995425 -0.044159 -0.084724
0.405862 52.083042 34.192091 -0.995425 -0.044159 -0.084724
0.507793 46.932004 35.679274 -0.995425 -0.044159 -0.084724
0.480758 46.922660 36.001784 -0.995425 -0.044159 -0.084724
0.792862 42.638577 36.706282 -0.992589 -0.087352 -0.084483
0.858027 41.790756 36.817273 -0.992589 -0.087352 -0.084483
0.932262 40.757036 37.013903 -0.992589 -0.087351 -0.084481
0.954195 42.474622 34.980274 -0.992589 -0.087351 -0.084481
1.011951 42.019992 34.771761 -0.992589 -0.087351 -0.084481
1.407227 37.003566 37.035889 -0.987892 -0.130381 -0.084082
1.387726 37.794463 36.038605 -0.987892 -0.130381 -0.084082
1.462900 36.955851 36.455765 -0.987892 -0.130381 -0.084082
1.825472 34.758430 35.603259 -0.987892 -0.130381 -0.084081
1.265119 39.653185 34.596908 -0.987892 -0.130381 -0.084081
2.228591 31.986352 36.161428 -0.981345 -0.173167 -0.083524
2.115336 32.539336 36.345615 -0.981345 -0.173167 -0.083524
1.919197 33.714634 36.213400 -0.981345 -0.173167 -0.083524
2.721434 29.956757 34.578797 -0.981344 -0.173168 -0.083526
2.421225 31.642273 34.611510 -0.981344 -0.173168 -0.083526
2.749285 28.723552 36.808282 -0.981344 -0.173168 -0.083526
3.720521 23.872272 37.375647 -0.972957 -0.215630 -0.082812
3.432330 25.623705 36.201123 -0.972957 -0.215630 -0.082812
4.061817 23.215532 35.075803 -0.972957 -0.215630 -0.082811
4.035444 23.201805 35.421411 -0.972957 -0.215630 -0.082811
4.360258 21.488473 36.066437 -0.972957 -0.215630 -0.082811
5.197130 18.035225 36.908488 -0.962747 -0.257690 -0.081942
5.623406 16.409717 37.011983 -0.962747 -0.257690 -0.081942
5.998961 15.157628 36.537075 -0.962747 -0.257690 -0.081942
5.405292 17.445170 36.318352 -0.962747 -0.257690 -0.081942
6.630114 13.092541 36.598286 -0.950732 -0.299269 -0.080919
7.261327 10.876200 37.378898 -0.950732 -0.299269 -0.080919
7.316526 10.850102 36.826886 -0.950732 -0.299269 -0.080919
7.866417 9.038200 37.067200 -0.950731 -0.299269 -0.080919
7.520187 10.159708 36.987361 -0.950731 -0.299269 -0.080919
4.109775 67.464764 22.676403 -0.907884 0.085590 -0.410390
3.761666 70.364053 24.051178 -0.907884 0.085590 -0.410390
3.981243 69.392431 23.362779 -0.907884 0.085590 -0.410390
3.088993 62.145268 24.263005 -0.910409 0.042392 -0.411531
3.126422 62.554998 24.222409 -0.910409 0.042392 -0.411531
3.564381 64.121962 23.414951 -0.910409 0.042392 -0.411531
3.499819 60.245850 23.158493 -0.910409 0.042392 -0.411531
4.153524 64.841198 22.185709 -0.910409 0.042392 -0.411531
3.740322 61.657221 22.771829 -0.910409 0.042392 -0.411531
3.110910 57.434066 23.978041 -0.911228 -0.000884 -0.411901
3.285444 56.880170 23.593118 -0.911228 -0.000884 -0.411901
3.561249 55.340571 22.986273 -0.911228 -0.000884 -0.411902
4.203804 58.806097 21.557346 -0.911228 -0.000884 -0.411902
4.093488 55.280611 21.808958 -0.911228 -0.000884 -0.411902
3.198851 52.162039 23.914651 -0.910339 -0.044159 -0.411500
3.074987 51.011319 24.312155 -0.910339 -0.044159 -0.411500
3.634285 51.540792 23.018031 -0.910339 -0.044159 -0.411500
4.166520 49.269597 22.084323 -0.910339 -0.044159 -0.411500
3.629352 47.705819 23.440487 -0.910339 -0.044159 -0.411500
4.276061 49.009661 21.869886 -0.910339 -0.044159 -0.411500
3.575153 44.680220 24.109829 -0.907745 -0.087351 -0.410327
3.576727 42.371107 24.597917 -0.907745 -0.087351 -0.410327
4.277570 41.352859 23.264248 -0.907745 -0.087352 -0.410328
4.301739 44.339966 22.574876 -0.907745 -0.087352 -0.410328
4.751209 41.602989 22.163193 -0.907745 -0.087352 -0.410328
4.315681 39.889445 23.538906 -0.903450 -0.130381 -0.408386
4.141389 39.760990 23.965493 -0.903450 -0.130381 -0.408386
4.769590 39.665387 22.606280 -0.903450 -0.130381 -0.408386
5.002268 35.391671 23.455964 -0.903450 -0.130381 -0.408386
4.742280 35.007872 24.153655 -0.903450 -0.130381 -0.408386
4.556284 34.063780 24.866535 -0.903450 -0.130381 -0.408386
5.474878 30.931996 24.152736 -0.897462 -0.173167 -0.405679
4.943199 31.108638 25.253542 -0.897462 -0.173167 -0.405679
5.585061 27.589607 25.335707 -0.897462 -0.173167 -0.405679
6.254085 28.508514 23.463420 -0.897462 -0.173167 -0.405679
6.619647 28.174869 22.797125 -0.897462 -0.173167 -0.405679
6.685384 21.997937 25.888590 -0.889792 -0.215630 -0.402212
6.693366 26.187498 23.624861 -0.889792 -0.215630 -0.402212
7.271895 22.630890 24.251747 -0.889792 -0.215630 -0.402211
6.990674 24.882521 23.666754 -0.889792 -0.215630 -0.402211
7.345079 24.284275 23.203448 -0.889792 -0.215630 -0.402211
8.133481 18.060199 25.139775 -0.880454 -0.257690 -0.397990
7.601514 18.557871 25.994387 -0.880454 -0.257690 -0.397990
8.423272 14.978812 26.493812 -0.880454 -0.257690 -0.397991
9.055119 15.773355 24.581563 -0.880454 -0.257690 -0.397991
9.225242 15.437953 24.422374 -0.880454 -0.257690 -0.397991
8.932813 14.106950 26.017752 -0.869466 -0.299269 -0.393024
9.192298 12.118684 26.957676 -0.869466 -0.299269 -0.393024
9.638711 14.342410 24.276839 -0.869466 -0.299269 -0.393023
9.953274 11.424078 25.803120 -0.869466 -0.299269 -0.393023
11.840524 6.065478 26.013043 -0.856848 -0.340288 -0.387319
11.754424 5.901370 26.347700 -0.856848 -0.340288 -0.387319
4.709592 69.783131 21.828676 -0.893011 0.085664 -0.441807
4.671207 67.142767 21.427100 -0.869810 0.085590 -0.485906
5.224411 70.812151 21.083165 -0.869810 0.085590 -0.485906
4.760089 66.814011 21.210086 -0.869810 0.085590 -0.485906
5.177571 63.533879 20.130956 -0.872229 0.042392 -0.487257
4.876703 65.308461 20.823926 -0.872229 0.042392 -0.487257
4.718691 61.137176 20.743869 -0.872230 0.042393 -0.487256
5.881130 61.979086 18.736253 -0.872230 0.042393 -0.487256
5.688134 60.160582 18.923515 -0.872230 0.042393 -0.487256
4.913953 59.001312 20.279472 -0.873014 -0.000884 -0.487694
4.399945 54.255664 21.208191 -0.873014 -0.000884 -0.487694
4.222059 57.230986 21.521230 -0.873014 -0.000884 -0.487694
5.431734 54.689137 19.360418 -0.873014 -0.000884 -0.487695
5.077919 56.301122 19.990854 -0.873014 -0.000884 -0.487695
5.708542 56.511890 18.861604 -0.873014 -0.000884 -0.487695
4.964347 52.623146 20.261086 -0.872163 -0.044159 -0.487219
5.062505 52.678677 20.080342 -0.872163 -0.044159 -0.487219
5.252708 49.195686 20.055546 -0.872163 -0.044159 -0.487219
5.816078 50.382726 18.939479 -0.872163 -0.044159 -0.487219
5.758836 48.935678 19.173100 -0.872163 -0.044159 -0.487219
5.056364 41.740474 21.534667 -0.869677 -0.087352 -0.485831
5.529193 43.716274 20.333017 -0.869677 -0.087352 -0.485831
5.516112 43.671012 20.364570 -0.869677 -0.087352 -0.485831
6.228294 43.064087 19.198831 -0.869677 -0.087352 -0.485831
5.515207 41.960796 20.673686 -0.869677 -0.087352 -0.485831
5.888340 39.649047 20.483055 -0.865562 -0.130381 -0.483532
6.150319 37.099744 20.701494 -0.865562 -0.130381 -0.483532
5.784783 40.137054 20.536843 -0.865562 -0.130381 -0.483532
6.161322 35.603456 21.085261 -0.865562 -0.130381 -0.483532
6.642851 37.868437 19.612548 -0.865562 -0.130381 -0.483532
6.977145 36.691074 19.331601 -0.865562 -0.130381 -0.483532
6.771445 33.769304 20.498822 -0.859825 -0.173167 -0.480327
6.458075 33.411037 21.188943 -0.859825 -0.173167 -0.480327
7.553159 31.553821 19.898214 -0.859825 -0.173167 -0.480327
7.322699 32.594485 19.935576 -0.859825 -0.173167 -0.480327
7.132509 31.256191 20.758512 -0.859825 -0.173167 -0.480327
7.406901 26.792515 21.941095 -0.852477 -0.215630 -0.476222
7.862606 25.417426 21.747976 -0.852477 -0.215630 -0.476222
8.050373 23.893122 22.102050 -0.852477 -0.215630 -0.476222
8.772314 22.474479 21.452068 -0.852477 -0.215630 -0.476222
8.477705 23.219689 21.642016 -0.852477 -0.215630 -0.476222
9.295725 20.768796 21.322937 -0.843530 -0.257690 -0.471224
9.087318 20.074940 22.075438 -0.843530 -0.257690 -0.471224
8.825839 20.117209 22.520392 -0.843530 -0.257690 -0.471224
10.127976 17.212879 21.777698 -0.843530 -0.257690 -0.471224
9.672231 17.903094 22.216073 -0.843530 -0.257690 -0.471224
10.749809 12.334182 23.576329 -0.833003 -0.299269 -0.465343
10.347565 13.195196 23.742651 -0.833003 -0.299269 -0.465343
11.942059 9.647894 23.169695 -0.833003 -0.299269 -0.465344
11.595768 9.441529 23.922299 -0.833003 -0.299269 -0.465344
10.123061 71.148315 13.956882 -0.751729 0.085665 -0.653885
11.288563 66.526430 12.148313 -0.719307 0.085590 -0.689400
11.541912 66.552095 11.887160 -0.719307 0.085590 -0.689400
10.172950 67.014684 13.372939 -0.719307 0.085590 -0.689400
10.653449 63.338128 12.600815 -0.721307 0.042393 -0.691317
9.959149 60.775927 13.168116 -0.721307 0.042393 -0.691317
11.914549 64.230953 11.339757 -0.721307 0.042393 -0.691317
11.318488 63.373726 11.909109 -0.721307 0.042393 -0.691317
11.591818 60.555122 11.451081 -0.721307 0.042393 -0.691317
10.376552 57.574599 12.675625 -0.721956 -0.000884 -0.691939
9.968330 58.524283 13.100342 -0.721956 -0.000884 -0.691939
11.208709 58.078404 11.806724 -0.721956 -0.000884 -0.691939
11.402653 57.519260 11.605081 -0.721956 -0.000884 -0.691938
10.361269 53.618036 12.696626 -0.721956 -0.000884 -0.691938
11.815201 58.298323 11.173641 -0.721956 -0.000884 -0.691938
10.995087 51.954127 12.121794 -0.721252 -0.044159 -0.691264
10.815132 50.963373 12.372847 -0.721252 -0.044159 -0.691264
10.824685 49.273946 12.470803 -0.721252 -0.044159 -0.691264
11.927350 48.539547 11.367219 -0.721252 -0.044159 -0.691264
10.840010 46.943731 12.603672 -0.721252 -0.044159 -0.691264
11.452173 44.487006 12.267830 -0.719196 -0.087352 -0.689294
10.725766 43.897431 13.100464 -0.719196 -0.087352 -0.689294
10.363188 42.081489 13.708900 -0.719196 -0.087352 -0.689294
12.281860 41.291994 11.807043 -0.719196 -0.087352 -0.689294
11.778218 41.560881 12.298459 -0.719196 -0.087352 -0.689294
11.137688 35.230644 14.092235 -0.715793 -0.130381 -0.686032
11.036641 38.484311 13.579304 -0.715793 -0.130381 -0.686032
10.968929 34.986194 14.314773 -0.715793 -0.130381 -0.686032
12.509242 38.994643 11.945830 -0.715793 -0.130381 -0.686032
12.557574 38.191051 12.048125 -0.715793 -0.130381 -0.686032
12.882944 35.499412 12.220188 -0.715793 -0.130381 -0.686032
11.640112 30.613681 14.655466 -0.711049 -0.173167 -0.681485
11.969544 28.503826 14.847863 -0.711049 -0.173167 -0.681485
12.828576 30.883227 13.346953 -0.711049 -0.173167 -0.681485
13.749000 29.351410 12.775838 -0.711049 -0.173167 -0.681485
12.900342 29.886908 13.525241 -0.711049 -0.173167 -0.681485
12.218048 26.651257 15.113985 -0.704972 -0.215630 -0.675661
13.265278 26.093708 14.199260 -0.704972 -0.215630 -0.675661
12.443030 26.342118 14.977902 -0.704972 -0.215630 -0.675661
14.197490 22.643167 14.327811 -0.704972 -0.215630 -0.675661
14.108396 22.439957 14.485622 -0.704972 -0.215630 -0.675661
14.357484 16.793552 16.316275 -0.697574 -0.257690 -0.668571
14.463380 20.937166 14.608694 -0.697574 -0.257690 -0.668571
15.847629 15.356589 15.315339 -0.697574 -0.257690 -0.668570
14.887746 16.160303 16.007085 -0.697574 -0.257690 -0.668570
15.467949 15.502447 15.655272 -0.697574 -0.257690 -0.668570
14.647497 14.817561 16.778669 -0.688868 -0.299269 -0.660226
14.332772 14.479944 17.260082 -0.688868 -0.299269 -0.660226
16.701234 9.114935 17.220734 -0.688868 -0.299269 -0.660227
16.611189 10.336747 16.760860 -0.688868 -0.299269 -0.660227
17.480544 72.236366 7.519406 -0.561268 0.085666 -0.823189
18.237495 71.155407 6.931523 -0.522383 0.085590 -0.848404
17.840477 66.763605 6.732915 -0.522383 0.085590 -0.848404
17.335283 60.178913 6.691854 -0.523836 0.042392 -0.850764
18.262739 63.143399 6.268513 -0.523836 0.042392 -0.850764
19.460104 65.662972 5.656812 -0.523836 0.042392 -0.850764
19.853176 64.085419 5.336181 -0.523836 0.042392 -0.850764
19.295301 63.865696 5.668730 -0.523836 0.042392 -0.850764
18.977445 62.971706 5.819895 -0.523836 0.042392 -0.850764
17.245452 54.423851 6.733883 -0.524307 -0.000884 -0.851529
17.385114 58.687005 6.643463 -0.524307 -0.000884 -0.851529
17.669075 56.295395 6.471104 -0.524307 -0.000884 -0.851529
18.077429 54.561919 6.221471 -0.524307 -0.000884 -0.851529
19.594691 54.337531 5.287490 -0.524307 -0.000884 -0.851529
17.607484 48.686998 6.751676 -0.523796 -0.044159 -0.850699
19.887706 52.997861 5.123915 -0.523796 -0.044159 -0.850699
18.509819 50.740663 6.089483 -0.523796 -0.044159 -0.850699
18.101003 47.279464 6.520868 -0.523796 -0.044159 -0.850698
19.825977 47.541337 5.445165 -0.523796 -0.044159 -0.850698
19.273333 48.249168 5.748699 -0.523796 -0.044159 -0.850698
17.850156 43.475386 7.043034 -0.522303 -0.087352 -0.848274
19.828904 46.337577 5.529933 -0.522303 -0.087352 -0.848274
18.302155 42.727918 6.841699 -0.522303 -0.087352 -0.848274
18.713858 41.095980 6.756254 -0.522303 -0.087352 -0.848274
19.479956 40.360798 6.360255 -0.522303 -0.087352 -0.848274
18.567569 38.095678 7.270531 -0.519832 -0.130381 -0.844260
18.560933 37.797978 7.320591 -0.519832 -0.130381 -0.844260
19.477847 40.200682 6.384970 -0.519832 -0.130381 -0.844260
20.017676 36.002822 6.700869 -0.519832 -0.130381 -0.844260
18.901528 35.313080 7.494627 -0.519832 -0.130381 -0.844260
19.798824 38.224072 6.492589 -0.519832 -0.130381 -0.844260
19.626932 31.102040 7.843517 -0.516387 -0.173167 -0.838664
18.669525 30.543092 8.548428 -0.516387 -0.173167 -0.838664
19.897011 30.349921 7.832520 -0.516387 -0.173167 -0.838664
20.556692 30.379777 7.420173 -0.516387 -0.173167 -0.838664
20.911765 28.846201 7.518198 -0.516387 -0.173167 -0.838664
21.239690 26.806699 7.773607 -0.511973 -0.215630 -0.831497
19.563921 22.654872 9.882102 -0.511973 -0.215630 -0.831497
21.910990 22.935054 8.364295 -0.511973 -0.215630 -0.831497
21.938264 22.671909 8.415743 -0.511973 -0.215630 -0.831497
21.354234 24.361497 8.337187 -0.511973 -0.215630 -0.831497
20.717388 20.072811 9.899305 -0.506600 -0.257690 -0.822771
20.837491 20.898652 9.566704 -0.506600 -0.257690 -0.822771
22.460422 17.145719 9.742834 -0.506600 -0.257690 -0.822771
21.859860 18.230113 9.772986 -0.506600 -0.257690 -0.822771
21.372824 17.822704 10.200465 -0.506600 -0.257690 -0.822771
22.020257 11.864225 11.833570 -0.500278 -0.299269 -0.812503
21.507234 10.826022 12.531852 -0.500278 -0.299269 -0.812503
23.522660 9.377656 11.824381 -0.500278 -0.299269 -0.812503
22.518400 11.569662 11.635347 -0.500278 -0.299269 -0.812503
23.408791 8.100149 12.397144 -0.493017 -0.340288 -0.800711
22.813137 7.259840 13.121019 -0.493017 -0.340288 -0.800711
20.332532 70.943036 5.617225 -0.488935 0.085666 -0.868103
22.649588 66.666017 4.034245 -0.448551 0.085590 -0.889649
20.243738 66.779967 5.258210 -0.448551 0.085590 -0.889649
20.813954 65.674305 4.894475 -0.449799 0.042392 -0.892123
20.668809 65.513600 4.960019 -0.449799 0.042392 -0.892123
20.667388 63.239234 4.852661 -0.449799 0.042392 -0.892123
21.163427 59.906445 4.444194 -0.449799 0.042392 -0.892123
21.608214 62.148465 4.326475 -0.449799 0.042392 -0.892123
21.020258 60.196684 4.530170 -0.449799 0.042392 -0.892123
20.465121 56.764871 4.794237 -0.450203 -0.000884 -0.892926
21.687617 59.060451 4.175594 -0.450203 -0.000884 -0.892926
20.133175 54.399957 4.963942 -0.450203 -0.000884 -0.892926
22.621762 53.808728 3.709809 -0.450203 -0.000884 -0.892926
22.379891 56.583967 3.829010 -0.450203 -0.000884 -0.892926
21.073794 53.285556 4.491574 -0.449764 -0.044159 -0.892055
20.207686 53.024051 4.941201 -0.449764 -0.044159 -0.892055
21.279037 49.998645 4.550802 -0.449764 -0.044159 -0.892055
22.234506 46.928208 4.221060 -0.449764 -0.044159 -0.892055
22.437341 49.015596 4.015462 -0.449764 -0.044159 -0.892055
22.373968 49.668766 4.015080 -0.449764 -0.044159 -0.892055
21.255018 45.250366 4.873878 -0.448482 -0.087352 -0.889513
22.552111 46.095366 4.136919 -0.448482 -0.087352 -0.889513
20.786298 41.169898 5.510912 -0.448482 -0.087352 -0.889513
22.650384 42.516979 4.438774 -0.448483 -0.087352 -0.889513
23.257787 41.212045 4.260674 -0.448483 -0.087352 -0.889513
20.864794 39.822654 5.628794 -0.446361 -0.130381 -0.885304
20.824133 38.884231 5.787499 -0.446361 -0.130381 -0.885304
22.534019 39.210399 4.877357 -0.446361 -0.130381 -0.885304
23.597306 35.827221 4.839510 -0.446360 -0.130381 -0.885304
23.435169 36.173366 4.870279 -0.446360 -0.130381 -0.885304
23.061220 39.419813 4.580707 -0.446360 -0.130381 -0.885304
22.029128 29.318334 6.815768 -0.443402 -0.173167 -0.879436
23.011928 32.224552 5.747996 -0.443402 -0.173167 -0.879436
23.397022 31.391535 5.717863 -0.443402 -0.173167 -0.879436
23.450756 27.555221 6.446168 -0.443402 -0.173167 -0.879436
23.721060 30.103762 5.808058 -0.443402 -0.173167 -0.879436
23.469335 26.370362 6.726625 -0.439612 -0.215630 -0.871920
22.471619 23.936692 7.831520 -0.439612 -0.215630 -0.871920
22.862731 22.630153 7.957439 -0.439612 -0.215630 -0.871920
24.045546 22.740835 7.333705 -0.439612 -0.215630 -0.871920
22.825052 22.440741 8.023279 -0.439612 -0.215630 -0.871920
22.991384 20.996996 8.304125 -0.434999 -0.257690 -0.862770
23.044995 20.203332 8.514145 -0.434999 -0.257690 -0.862770
24.001634 16.997804 8.989236 -0.435000 -0.257690 -0.862770
24.240843 18.958316 8.283069 -0.435000 -0.257690 -0.862770
25.000762 16.699582 8.574558 -0.435000 -0.257690 -0.862770
24.222457 13.771093 9.899278 -0.429571 -0.299269 -0.852002
24.121080 11.945661 10.591581 -0.429571 -0.299269 -0.852002
25.218142 9.745966 10.811104 -0.429571 -0.299269 -0.852002
24.733691 10.625665 10.746362 -0.429571 -0.299269 -0.852002
29.970050 66.588319 1.451154 -0.209906 0.085590 -0.973968
31.541902 66.550325 1.109056 -0.209906 0.085590 -0.973968
30.561164 67.734999 1.424528 -0.209906 0.085590 -0.973968
30.000221 63.929888 1.316140 -0.210490 0.042392 -0.976677
31.581979 65.599115 1.047698 -0.210490 0.042392 -0.976677
30.532980 66.072343 1.294314 -0.210490 0.042392 -0.976677
30.730194 59.826373 0.980708 -0.210490 0.042392 -0.976676
30.043884 61.237749 1.189879 -0.210490 0.042392 -0.976676
32.400867 65.558032 0.869431 -0.210490 0.042392 -0.976676
31.078075 59.072919 0.905261 -0.210679 -0.000884 -0.977555
30.215164 55.245183 1.094695 -0.210679 -0.000884 -0.977555
30.496150 55.620380 1.033799 -0.210680 -0.000884 -0.977555
30.234027 53.306334 1.092383 -0.210680 -0.000884 -0.977555
30.083304 54.066676 1.124179 -0.210680 -0.000884 -0.977555
30.358315 50.562985 1.189433 -0.210474 -0.044159 -0.976601
30.869847 50.728394 1.071710 -0.210474 -0.044159 -0.976601
31.334354 53.034726 0.867314 -0.210474 -0.044159 -0.976601
31.146324 50.292766 1.031822 -0.210474 -0.044159 -0.976602
32.461228 49.961591 0.763413 -0.210474 -0.044159 -0.976602
31.806969 50.686247 0.871650 -0.210474 -0.044159 -0.976602
30.977017 45.065861 1.382205 -0.209874 -0.087351 -0.973818
30.578999 45.536972 1.425727 -0.209874 -0.087351 -0.973818
32.597376 40.904501 1.406266 -0.209874 -0.087352 -0.973819
32.511435 45.841467 0.981941 -0.209874 -0.087352 -0.973819
31.003137 41.424868 1.703173 -0.209874 -0.087352 -0.973819
30.188996 38.709516 2.195075 -0.208881 -0.130381 -0.969211
32.040126 39.542950 1.684010 -0.208881 -0.130381 -0.969211
32.231669 39.966254 1.585786 -0.208881 -0.130381 -0.969211
32.503792 37.263942 1.890662 -0.208881 -0.130381 -0.969211
31.366087 34.867731 2.458201 -0.208881 -0.130381 -0.969211
31.237890 32.028852 2.952203 -0.207496 -0.173168 -0.962787
31.534795 33.502464 2.623170 -0.207496 -0.173168 -0.962787
31.278878 31.837292 2.977823 -0.207496 -0.173168 -0.962787
32.276385 31.487199 2.825812 -0.207496 -0.173168 -0.962787
32.013204 29.949842 3.159042 -0.207496 -0.173168 -0.962787
32.604509 31.258861 2.796165 -0.207496 -0.173168 -0.962787
31.540940 25.479305 4.157539 -0.205723 -0.215630 -0.954558
30.210251 24.927042 4.569078 -0.205723 -0.215630 -0.954558
32.634943 23.252998 4.424673 -0.205724 -0.215629 -0.954558
32.753623 25.232117 3.952024 -0.205724 -0.215629 -0.954558
32.752848 24.359416 4.149329 -0.205724 -0.215629 -0.954558
32.081115 18.243553 5.811846 -0.203565 -0.257690 -0.944541
31.724933 20.853039 5.176689 -0.203565 -0.257690 -0.944541
33.128942 17.515395 5.784679 -0.203564 -0.257690 -0.944541
31.416275 14.934150 6.858003 -0.203564 -0.257690 -0.944541
31.832082 13.959114 7.078015 -0.201023 -0.299269 -0.932753
31.252655 12.092494 7.801785 -0.201023 -0.299269 -0.932753
32.709656 14.367679 6.757797 -0.201023 -0.299269 -0.932753
33.075508 10.015034 8.075472 -0.201024 -0.299268 -0.932753
31.916487 8.926273 8.674583 -0.201024 -0.299268 -0.932753
40.783511 71.259473 0.806219 0.042864 0.085881 -0.995383
40.731350 72.766051 0.933959 0.042864 0.085881 -0.995383
40.069242 72.544149 0.886301 0.042864 0.085881 -0.995383
44.371273 66.844109 0.746122 0.126555 0.085306 -0.988285
43.079092 70.599578 0.904812 0.126555 0.085306 -0.988285
43.667493 69.686103 0.901312 0.126555 0.085306 -0.988285
43.231692 62.460375 0.388684 0.126904 0.042392 -0.991009
43.414214 65.705733 0.550883 0.126904 0.042392 -0.991009
44.400007 63.046796 0.563378 0.126904 0.042392 -0.991009
45.208656 62.544715 0.645452 0.126904 0.042392 -0.991009
43.945761 60.180726 0.382608 0.126904 0.042392 -0.991009
44.893720 58.633089 0.488767 0.127018 -0.000884 -0.991900
44.107000 57.092319 0.389397 0.127018 -0.000884 -0.991900
45.203301 58.989886 0.528093 0.127018 -0.000884 -0.991900
44.880513 56.796940 0.488712 0.127017 -0.000884 -0.991900
45.041893 56.959358 0.509233 0.127017 -0.000884 -0.991900
45.369760 58.142293 0.550164 0.127017 -0.000884 -0.991900
44.700071 51.649101 0.542360 0.126894 -0.044159 -0.990933
44.340652 52.978128 0.437109 0.126894 -0.044159 -0.990933
44.398222 48.318977 0.652109 0.126894 -0.044159 -0.990933
43.550389 47.226468 0.592225 0.126894 -0.044159 -0.990933
45.457488 52.233192 0.613322 0.126894 -0.044159 -0.990933
44.630150 46.089684 0.812696 0.126532 -0.087351 -0.988109
44.537137 45.103049 0.888006 0.126532 -0.087351 -0.988109
43.311816 46.589538 0.599688 0.126532 -0.087351 -0.988109
43.663712 41.471845 1.097168 0.126533 -0.087352 -0.988109
43.014394 40.516728 1.098455 0.126533 -0.087352 -0.988109
44.158407 39.609996 1.357151 0.125934 -0.130381 -0.983433
43.610618 36.542332 1.693708 0.125934 -0.130381 -0.983433
42.404593 38.245034 1.313529 0.125934 -0.130381 -0.983433
44.828415 35.088823 2.042355 0.125933 -0.130381 -0.983434
43.380887 34.778417 1.898145 0.125933 -0.130381 -0.983434
42.970473 35.102314 1.802648 0.125933 -0.130381 -0.983434
43.126752 32.644145 2.204322 0.125099 -0.173167 -0.976915
44.334139 33.872370 2.141219 0.125099 -0.173167 -0.976915
43.579102 30.152329 2.703944 0.125100 -0.173168 -0.976915
45.180382 28.227661 3.250164 0.125100 -0.173168 -0.976915
44.024051 30.990955 2.612268 0.125100 -0.173168 -0.976915
42.215198 25.187980 3.513786 0.124031 -0.215630 -0.968566
42.551548 22.615916 4.129471 0.124031 -0.215630 -0.968566
42.643529 25.501611 3.498813 0.124031 -0.215630 -0.968566
43.903672 23.450370 4.116845 0.124030 -0.215629 -0.968566
43.719370 22.277317 4.354398 0.124030 -0.215629 -0.968566
42.516517 16.956511 5.578684 0.122728 -0.257690 -0.958402
44.690147 20.721001 4.844853 0.122728 -0.257690 -0.958402
43.012825 20.337729 4.733115 0.122728 -0.257690 -0.958402
44.758661 17.720438 5.660403 0.122729 -0.257690 -0.958401
43.520584 16.310914 5.880846 0.122729 -0.257690 -0.958401
43.592735 12.861808 6.912382 0.121197 -0.299269 -0.946440
42.167413 13.736379 6.453318 0.121197 -0.299269 -0.946440
43.147763 10.853830 7.490332 0.121197 -0.299268 -0.946441
41.875308 8.819005 7.970808 0.121197 -0.299268 -0.946441
43.369108 8.494802 8.272981 0.119438 -0.340288 -0.932705
42.846374 6.494473 8.935841 0.119438 -0.340288 -0.932705
43.674343 6.022853 9.213933 0.119438 -0.340288 -0.932705
44.365789 70.440585 1.057238 0.128269 0.086165 -0.987989
43.945674 72.271633 1.162385 0.128269 0.086165 -0.987989
45.825668 66.331876 0.900740 0.209916 0.085029 -0.974015
46.598925 68.208256 1.231192 0.209916 0.085029 -0.974015
45.794917 68.822763 1.111560 0.209916 0.085029 -0.974015
47.962727 65.838407 1.338195 0.210490 0.042392 -0.976677
45.926660 62.842747 0.769364 0.210490 0.042392 -0.976677
47.132536 65.948051 1.164035 0.210490 0.042392 -0.976677
47.779028 62.570731 1.156773 0.210490 0.042392 -0.976676
46.464159 60.511160 0.784002 0.210490 0.042392 -0.976676
47.773757 60.033320 1.045502 0.210490 0.042392 -0.976676
46.965339 58.141208 0.862662 0.210679 -0.000884 -0.977555
45.786955 57.171750 0.609577 0.210679 -0.000884 -0.977555
48.557978 53.510381 1.210090 0.210680 -0.000884 -0.977555
48.741814 55.926409 1.247525 0.210680 -0.000884 -0.977555
46.405148 54.380995 0.745331 0.210680 -0.000884 -0.977555
46.755594 52.420505 0.861675 0.210474 -0.044159 -0.976601
45.842382 47.725134 0.877174 0.210474 -0.044159 -0.976601
48.226268 52.911600 1.156424 0.210474 -0.044159 -0.976601
48.302466 49.429051 1.330318 0.210474 -0.044159 -0.976602
48.433171 48.857194 1.384344 0.210474 -0.044159 -0.976602
46.619948 47.034613 1.075977 0.210474 -0.044159 -0.976602
45.665576 43.859083 1.145112 0.209874 -0.087352 -0.973818
48.048581 46.063715 1.460934 0.209874 -0.087352 -0.973818
46.698851 42.269495 1.510386 0.209874 -0.087351 -0.973819
47.743161 44.062581 1.574612 0.209874 -0.087351 -0.973819
47.824165 44.438780 1.558325 0.209874 -0.087351 -0.973819
47.491198 38.364497 2.119767 0.208881 -0.130381 -0.969211
45.655413 35.869764 2.059723 0.208881 -0.130381 -0.969211
46.615435 40.312450 1.668981 0.208881 -0.130381 -0.969211
46.944469 34.137307 2.570592 0.208881 -0.130381 -0.969211
48.262770 37.068637 2.460376 0.208881 -0.130381 -0.969211
45.550262 29.894774 3.022068 0.207496 -0.173168 -0.962787
47.200857 32.155614 2.971162 0.207496 -0.173168 -0.962787
46.158257 29.831573 3.164469 0.207496 -0.173168 -0.962787
48.149350 30.319982 3.505736 0.207496 -0.173168 -0.962787
45.285596 27.544916 3.387676 0.207496 -0.173168 -0.962787
47.963002 31.862345 3.188165 0.207496 -0.173168 -0.962787
45.552604 25.199294 3.972637 0.205723 -0.215629 -0.954558
46.337384 24.232602 4.360140 0.205723 -0.215629 -0.954558
47.384752 22.137361 5.059170 0.205724 -0.215630 -0.954558
47.330104 25.426667 4.304355 0.205724 -0.215630 -0.954558
45.106077 21.324640 4.751665 0.205724 -0.215630 -0.954558
45.522867 20.053591 5.179885 0.203565 -0.257690 -0.944541
46.282688 20.704465 5.166068 0.203565 -0.257690 -0.944541
45.592635 16.431545 6.183090 0.203564 -0.257690 -0.944541
47.635618 17.281371 6.391536 0.203564 -0.257690 -0.944541
45.131046 12.660986 7.218251 0.201023 -0.299268 -0.932753
44.848228 14.624108 6.527442 0.201023 -0.299268 -0.932753
44.867561 9.811291 8.075774 0.201023 -0.299268 -0.932753
46.844025 10.176757 8.384476 0.201024 -0.299269 -0.932753
45.974408 11.520864 7.765810 0.201024 -0.299269 -0.932753
56.137892 68.350630 4.466704 0.448603 0.084246 -0.889752
55.142327 69.032656 4.029329 0.448603 0.084246 -0.889752
55.752898 66.609082 4.107697 0.448603 0.084246 -0.889752
56.002167 62.068485 4.002714 0.449799 0.042392 -0.892123
55.210915 61.067573 3.556212 0.449799 0.042392 -0.892123
55.466893 64.466271 3.846775 0.449799 0.042392 -0.892123
56.653564 62.309908 4.342613 0.449799 0.042392 -0.892123
57.725926 63.209862 4.926051 0.449799 0.042392 -0.892123
56.628319 59.701640 4.210731 0.450203 -0.000884 -0.892926
56.186033 56.236408 3.991167 0.450203 -0.000884 -0.892926
56.055033 58.965193 3.922416 0.450203 -0.000884 -0.892926
58.117153 54.167783 4.966866 0.450203 -0.000884 -0.892926
57.924087 55.281650 4.868421 0.450203 -0.000884 -0.892926
57.611491 53.629762 4.712449 0.450203 -0.000884 -0.892926
57.803097 52.685844 4.839861 0.449764 -0.044159 -0.892055
55.566521 48.587042 3.915107 0.449764 -0.044159 -0.892055
55.865331 52.608396 3.866694 0.449764 -0.044159 -0.892055
57.493724 51.002674 4.767200 0.449764 -0.044159 -0.892055
57.883522 51.966576 4.916016 0.449764 -0.044159 -0.892055
55.857739 43.151321 4.509152 0.448482 -0.087352 -0.889513
55.692490 42.587108 4.481242 0.448482 -0.087352 -0.889513
56.255838 46.375629 4.393237 0.448482 -0.087352 -0.889513
57.387685 42.093136 5.384450 0.448483 -0.087352 -0.889513
57.078218 40.679464 5.367245 0.448483 -0.087352 -0.889513
56.547845 42.699772 4.901439 0.448483 -0.087352 -0.889513
54.765625 34.611868 5.077965 0.446361 -0.130381 -0.885304
55.001898 38.048159 4.691019 0.446361 -0.130381 -0.885304
55.463722 38.847542 4.806139 0.446361 -0.130381 -0.885304
56.279841 36.628923 5.544359 0.446360 -0.130381 -0.885304
56.000881 34.375169 5.735627 0.446360 -0.130381 -0.885304
54.364231 31.419050 5.468553 0.443402 -0.173167 -0.879436
55.465823 30.464871 6.211848 0.443402 -0.173167 -0.879436
55.116716 33.268673 5.483743 0.443402 -0.173167 -0.879436
56.849840 29.524819 7.094757 0.443402 -0.173167 -0.879436
55.823474 27.521023 6.971836 0.443402 -0.173167 -0.879436
53.806048 22.722315 7.139942 0.439612 -0.215630 -0.871920
55.703517 26.325958 7.205427 0.439612 -0.215630 -0.871920
54.037532 25.697667 6.520835 0.439612 -0.215630 -0.871920
55.267924 21.297590 8.229345 0.439612 -0.215630 -0.871920
56.125000 25.572588 7.604246 0.439612 -0.215630 -0.871920
54.861912 20.389449 8.288100 0.434999 -0.257690 -0.862770
53.098409 16.203056 8.649341 0.434999 -0.257690 -0.862770
55.101464 20.856668 8.269332 0.434999 -0.257690 -0.862770
55.831389 19.542137 9.029972 0.435000 -0.257690 -0.862770
55.373846 16.317757 9.762333 0.435000 -0.257690 -0.862770
53.838294 12.743417 10.167364 0.429571 -0.299269 -0.852002
54.700100 14.339671 10.041187 0.429571 -0.299269 -0.852002
53.229179 13.295641 9.666283 0.429571 -0.299269 -0.852002
54.306647 10.273627 11.271025 0.429571 -0.299269 -0.852002
53.872340 10.486894 10.977142 0.429571 -0.299269 -0.852002
64.616657 66.746929 9.951298 0.658366 0.083534 -0.748049
63.624001 67.093277 9.116327 0.658366 0.083534 -0.748049
63.996400 71.127450 9.894573 0.658366 0.083534 -0.748049
63.789787 62.745186 8.972346 0.660081 0.042393 -0.749997
64.287659 63.452825 9.450527 0.660081 0.042393 -0.749997
63.563707 66.157924 8.966273 0.660081 0.042393 -0.749997
65.634519 60.100290 10.446418 0.660081 0.042393 -0.749997
65.198880 63.579996 10.259690 0.660081 0.042393 -0.749997
64.546048 55.651409 9.476375 0.660675 -0.000884 -0.750672
65.286015 57.532274 10.125412 0.660675 -0.000884 -0.750672
64.157569 55.447655 9.134709 0.660675 -0.000884 -0.750672
64.579706 53.945058 9.508006 0.660674 -0.000884 -0.750672
64.771977 53.649319 9.677573 0.660674 -0.000884 -0.750672
65.910971 56.523410 10.676630 0.660674 -0.000884 -0.750672
64.034609 49.653189 9.243848 0.660030 -0.044159 -0.749940
65.022471 51.814297 9.986021 0.660030 -0.044159 -0.749940
64.253171 49.683181 9.434440 0.660030 -0.044159 -0.749940
65.605763 51.791269 10.500739 0.660030 -0.044159 -0.749940
65.876316 47.201371 11.009128 0.660030 -0.044159 -0.749940
63.675904 44.264825 9.392823 0.658149 -0.087352 -0.747803
63.672431 42.913072 9.547666 0.658149 -0.087352 -0.747803
63.999470 43.087326 9.815142 0.658149 -0.087352 -0.747803
65.395461 45.317873 10.783218 0.658149 -0.087352 -0.747803
65.059309 40.462609 11.054517 0.658149 -0.087352 -0.747803
65.369848 42.321964 11.110632 0.658149 -0.087352 -0.747803
63.328266 38.534576 9.861330 0.655035 -0.130381 -0.744264
63.143562 35.149863 10.291710 0.655035 -0.130381 -0.744264
64.445497 36.200021 11.253589 0.655035 -0.130381 -0.744265
64.068471 34.389526 11.238928 0.655035 -0.130381 -0.744265
64.019310 35.352914 11.026894 0.655035 -0.130381 -0.744265
62.921631 31.770863 10.813564 0.650694 -0.173167 -0.739331
62.725766 32.203496 10.539849 0.650694 -0.173167 -0.739331
63.274824 32.802471 10.882788 0.650694 -0.173167 -0.739331
63.820843 31.159688 11.748120 0.650693 -0.173167 -0.739332
63.554716 29.160251 11.982209 0.650693 -0.173167 -0.739332
62.346653 24.685263 12.135363 0.645132 -0.215630 -0.733013
62.222743 24.880570 11.968855 0.645132 -0.215630 -0.733013
61.487679 22.545466 12.008834 0.645132 -0.215630 -0.733013
63.015943 23.988889 12.929265 0.645133 -0.215630 -0.733013
62.753959 21.250529 13.504232 0.645133 -0.215630 -0.733013
61.430267 20.682755 12.534576 0.638362 -0.257690 -0.725320
61.521526 18.984536 13.218234 0.638362 -0.257690 -0.725320
60.509807 16.007643 13.385431 0.638362 -0.257690 -0.725320
61.914780 15.132745 14.932793 0.638362 -0.257690 -0.725320
60.457886 15.050866 13.679656 0.638362 -0.257690 -0.725320
59.715953 13.033941 13.857896 0.630395 -0.299269 -0.716268
60.451508 13.361295 14.368492 0.630395 -0.299269 -0.716268
60.765524 10.056564 16.025631 0.630395 -0.299269 -0.716268
61.390756 12.325404 15.627945 0.630395 -0.299269 -0.716268
60.856075 9.394727 16.381852 0.630395 -0.299269 -0.716268
59.227213 2.843875 18.059539 0.621247 -0.340288 -0.705873
59.220670 7.311160 15.900189 0.621247 -0.340288 -0.705873
66.284226 70.727298 11.953750 0.719446 0.083313 -0.689533
66.726204 69.354269 12.249005 0.719446 0.083313 -0.689533
67.791695 66.343082 12.996892 0.719446 0.083313 -0.689533
66.198830 65.024790 11.251121 0.721307 0.042393 -0.691317
66.261268 61.984979 11.129864 0.721307 0.042393 -0.691317
66.153418 64.082642 11.145966 0.721307 0.042393 -0.691317
67.322480 59.879231 12.107986 0.721307 0.042393 -0.691317
66.804591 61.443732 11.663567 0.721307 0.042393 -0.691317
66.644791 57.332623 11.399211 0.721956 -0.000884 -0.691939
67.905386 59.492903 12.711732 0.721956 -0.000884 -0.691939
66.803512 55.672961 11.566937 0.721956 -0.000884 -0.691939
67.150401 53.611094 11.931509 0.721956 -0.000884 -0.691938
67.035024 54.180528 11.810399 0.721956 -0.000884 -0.691938
67.535761 54.700362 12.332196 0.721956 -0.000884 -0.691938
66.346711 48.781192 11.382122 0.721252 -0.044159 -0.691264
66.855091 53.272492 11.625641 0.721252 -0.044159 -0.691264
68.222198 53.179331 13.058010 0.721252 -0.044159 -0.691264
66.657929 47.252649 11.804486 0.721252 -0.044159 -0.691264
68.050980 50.451666 13.053610 0.721252 -0.044159 -0.691264
66.052404 44.738170 11.463476 0.719196 -0.087352 -0.689294
66.366908 42.437631 12.083162 0.719196 -0.087352 -0.689294
66.830529 46.679801 12.029299 0.719196 -0.087352 -0.689294
67.825046 41.182776 13.763575 0.719196 -0.087352 -0.689294
68.143266 45.710018 13.521878 0.719196 -0.087352 -0.689294
65.867715 40.983899 11.746541 0.719196 -0.087352 -0.689294
66.124043 39.556433 12.244209 0.715793 -0.130381 -0.686032
66.351556 40.060909 12.385715 0.715793 -0.130381 -0.686032
66.450375 39.964631 12.507118 0.715793 -0.130381 -0.686032
66.191325 35.352747 13.113321 0.715793 -0.130381 -0.686032
66.001017 33.993145 13.173152 0.715793 -0.130381 -0.686032
65.054271 33.209753 12.377930 0.711049 -0.173167 -0.681485
65.076803 31.812783 12.756412 0.711049 -0.173167 -0.681485
65.575258 33.235498 12.914975 0.711049 -0.173167 -0.681485
66.712480 32.581164 14.267797 0.711049 -0.173167 -0.681485
64.694650 27.585134 13.431937 0.711049 -0.173167 -0.681485
65.525222 26.324862 14.694673 0.704972 -0.215630 -0.675661
63.847780 22.703839 14.100071 0.704972 -0.215630 -0.675661
64.322350 25.329693 13.757215 0.704972 -0.215630 -0.675661
65.251853 22.170731 15.735186 0.704972 -0.215630 -0.675661
65.117284 22.770542 15.403358 0.704972 -0.215630 -0.675661
64.012083 20.432230 15.043790 0.697574 -0.257690 -0.668571
64.074655 20.000239 15.275580 0.697574 -0.257690 -0.668571
62.405165 16.317108 14.953270 0.697574 -0.257690 -0.668571
64.401356 19.166599 15.937766 0.697574 -0.257690 -0.668570
62.851916 16.340173 15.410511 0.697574 -0.257690 -0.668570
62.018790 11.633695 16.574673 0.688868 -0.299269 -0.660226
61.901474 13.700432 15.515453 0.688868 -0.299269 -0.660226
61.276939 10.235156 16.434571 0.688868 -0.299269 -0.660226
62.157220 10.417565 17.270358 0.688868 -0.299269 -0.660227
63.148412 12.315211 17.444382 0.688868 -0.299269 -0.660227
69.461645 13.707069 26.652910 0.869466 -0.299269 -0.393023
68.384788 9.693623 27.326687 0.869466 -0.299269 -0.393023
68.908582 10.769258 27.787680 0.899664 -0.299269 -0.317871
69.232688 11.306344 28.199337 0.899664 -0.299269 -0.317871
69.315823 10.737544 28.970148 0.899664 -0.299269 -0.317872
68.673143 9.434412 28.378049 0.899664 -0.299269 -0.317872
69.301039 10.128216 29.501972 0.899664 -0.299269 -0.317872
69.153165 9.143615 30.037718 0.923381 -0.299269 -0.240429
69.752942 11.028935 29.994486 0.923381 -0.299269 -0.240429
69.584467 9.143369 31.694453 0.923381 -0.299269 -0.240429
69.969470 10.074781 32.013722 0.923381 -0.299269 -0.240429
71.388052 13.282869 34.106913 0.940444 -0.299269 -0.161256
71.343506 13.279624 33.853142 0.940444 -0.299269 -0.161256
70.685067 10.805669 34.604455 0.940444 -0.299269 -0.161256
70.579212 10.784867 34.025708 0.940444 -0.299269 -0.161256
70.094579 9.210789 34.120606 0.940444 -0.299269 -0.161256
71.765476 13.554879 36.093210 0.946423 -0.299514 -0.120724
32.232821 21.353862 73.304639 -0.205724 -0.215630 0.954558
31.606126 23.519593 73.658805 -0.205724 -0.215630 0.954558
32.586997 18.693702 72.664970 -0.203565 -0.257690 0.944541
32.281953 18.817585 72.633026 -0.203565 -0.257690 0.944541
32.201747 18.473151 72.521771 -0.203565 -0.257690 0.944541
34.985378 16.947383 72.568686 -0.122729 -0.257690 0.958401
33.371815 20.040915 73.193834 -0.122729 -0.257690 0.958401
35.720772 11.064448 70.901099 -0.121197 -0.299269 0.946440
36.415656 10.548857 70.827050 -0.121197 -0.299269 0.946440
36.389718 9.823904 70.594495 -0.121197 -0.299269 0.946440
37.376553 12.097533 71.354747 -0.040496 -0.299269 0.953309
38.729640 9.477415 70.589701 -0.040496 -0.299269 0.953309
38.723446 8.583526 70.304540 -0.039869 -0.342854 0.938542
38.166288 8.111157 70.108314 -0.039869 -0.342854 0.938542
36.808759 3.182612 68.251814 -0.046141 -0.340196 0.939222
38.937703 6.105340 69.415047 -0.046141 -0.340196 0.939222
31.352107 15.169654 71.437400 -0.203564 -0.257690 0.944541
33.104158 15.158815 71.812039 -0.203564 -0.257690 0.944541
30.567140 20.108163 72.615550 -0.203564 -0.257690 0.944541
32.725725 12.897723 71.019023 -0.201023 -0.299268 0.932753
32.015928 14.679963 71.437871 -0.201023 -0.299268 0.932753
34.511510 11.073052 70.748968 -0.121197 -0.299268 0.946441
36.190209 8.703224 70.214584 -0.121197 -0.299268 0.946441
34.342653 5.624680 68.856588 -0.119438 -0.340288 0.932705
34.373700 7.618885 69.588129 -0.119438 -0.340288 0.932705
35.897045 3.556448 68.309897 -0.125734 -0.337970 0.932720
36.103861 4.146262 68.551494 -0.125734 -0.337970 0.932720
29.279970 3.737705 66.871761 -0.336649 -0.340453 0.877929
29.774965 5.394817 67.653115 -0.275348 -0.340288 0.899104
29.337675 3.920666 66.961268 -0.275348 -0.340288 0.899104
29.222104 6.636243 67.953652 -0.275348 -0.340288 0.899104
30.278619 10.535792 69.658794 -0.279402 -0.299269 0.912345
28.659760 11.885230 69.605670 -0.279402 -0.299269 0.912345
30.122607 11.643758 69.974452 -0.279402 -0.299269 0.912345
29.156819 12.983500 70.118149 -0.279402 -0.299269 0.912345
29.266100 15.280955 70.884919 -0.282934 -0.257690 0.923875
28.280061 16.393451 70.893250 -0.282934 -0.257690 0.923875
27.928198 20.516440 71.935490 -0.282934 -0.257690 0.923875
27.748328 21.069334 72.034620 -0.282934 -0.257690 0.923875
30.461296 18.341646 72.104637 -0.282934 -0.257690 0.923875
28.434406 22.719195 72.629445 -0.285934 -0.215630 0.933673
27.918924 23.150491 72.571189 -0.285934 -0.215630 0.933673
28.406671 26.865601 73.578556 -0.285933 -0.215630 0.933673
29.910557 26.728517 74.007456 -0.285933 -0.215630 0.933673
29.585251 22.992507 73.045006 -0.285933 -0.215630 0.933673
28.813929 28.345342 74.004848 -0.288398 -0.173167 0.941722
28.600384 28.171447 73.907474 -0.288398 -0.173167 0.941722
27.476510 29.809166 73.864441 -0.288398 -0.173167 0.941722
30.325677 3.229883 67.017106 -0.293967 -0.333277 0.895829
30.830571 3.423765 67.252482 -0.254980 -0.340499 0.905011
31.733215 8.050375 69.219450 -0.198106 -0.340288 0.919216
32.295902 5.790278 68.504047 -0.198106 -0.340288 0.919216
33.154336 2.729878 67.574015 -0.210657 -0.335633 0.918136
33.805211 2.902010 67.772024 -0.171179 -0.340533 0.924519
24.231042 33.000986 73.219377 -0.367224 -0.173167 0.913871
25.980427 30.441162 73.437285 -0.367224 -0.173167 0.913871
24.723769 31.741630 73.178740 -0.367224 -0.173167 0.913871
25.266129 28.870887 72.852710 -0.367224 -0.173167 0.913871
24.209472 31.751639 72.973976 -0.367224 -0.173167 0.913871
27.242219 22.266212 72.141834 -0.364086 -0.215630 0.906060
26.299702 24.783215 72.362111 -0.364086 -0.215630 0.906060
26.841560 25.106271 72.656730 -0.364086 -0.215630 0.906060
25.605086 23.627783 71.808014 -0.364085 -0.215630 0.906061
26.097425 21.795460 71.569783 -0.364085 -0.215630 0.906061
26.784754 19.085612 71.099200 -0.360264 -0.257690 0.896552
26.664390 18.165799 70.786458 -0.360264 -0.257690 0.896552
27.747688 18.178447 71.225400 -0.360264 -0.257690 0.896552
25.693098 19.151036 70.679339 -0.360264 -0.257690 0.896552
26.131009 16.582169 70.116957 -0.360264 -0.257690 0.896552
28.162965 12.017532 69.477299 -0.355768 -0.299269 0.885363
27.484511 12.207516 69.268893 -0.355768 -0.299269 0.885363
26.735251 10.414965 68.361899 -0.355768 -0.299269 0.885363
26.471731 9.506256 67.948847 -0.355768 -0.299269 0.885363
27.602798 6.327789 67.217469 -0.351053 -0.336946 0.873630
28.298247 7.489711 67.945060 -0.351053 -0.336946 0.873630
28.080081 4.841741 66.836111 -0.351053 -0.336946 0.873630
24.048835 4.177400 64.577159 -0.490885 -0.340321 0.802006
23.630350 2.767582 63.722779 -0.490885 -0.340321 0.802006
24.398869 7.833462 66.306740 -0.423732 -0.337853 0.840421
24.761604 7.774320 66.465851 -0.423732 -0.337853 0.840421
26.200908 2.894259 65.221477 -0.415503 -0.340394 0.843498
25.791992 4.761781 65.773686 -0.415503 -0.340394 0.843498
27.678986 3.259884 66.060570 -0.373597 -0.340521 0.862827
21.757935 3.019322 62.535144 -0.559942 -0.341243 0.754995
21.323133 2.713708 62.074541 -0.559942 -0.341243 0.754995
22.905352 5.889271 64.601549 -0.493175 -0.339454 0.800968
22.374902 6.336858 64.464628 -0.493175 -0.339454 0.800968
21.944961 12.152253 66.471141 -0.500278 -0.299269 0.812503
23.387186 9.198231 66.271102 -0.500278 -0.299269 0.812503
