ply
format ascii 1.0
comment Generated by the CGAL library
element vertex 817
property double x
property double y
property double z
property double nx
property double ny
property double nz
property uchar red
property uchar green
property uchar blue
end_header
15.4882 74.2812 9.99781 -0.402163 0.743746 -0.533954 0 0 0 
25.3752 74.441 4.44058 -0.252484 0.743746 -0.618946 0 0 0 
33.2818 74.3625 2.17428 -0.0860639 0.743745 -0.6629 0 0 0 
44.0194 74.6596 2.46201 0.0694226 0.842169 -0.534726 0 0 0 
52.5571 74.6671 4.67076 0.203665 0.842169 -0.499271 0 0 0 
60.933 74.7038 9.33331 0.324405 0.842167 -0.430715 0 0 0 
68.4117 74.6378 16.4793 0.423635 0.842168 -0.333597 0 0 0 
72.835 74.6908 24.0221 0.494779 0.842165 -0.214362 0 0 0 
75.6177 74.5772 32.2413 0.533111 0.842167 -0.0809124 0 0 0 
75.9681 74.6863 42.024 0.536099 0.842167 0.0579019 0 0 0 
74.1003 74.6898 51.074 0.503537 0.84217 0.192875 0 0 0 
68.3246 74.703 61.7468 0.437593 0.842169 0.315062 0 0 0 
62.0881 74.6764 68.0888 0.342635 0.842167 0.41636 0 0 0 
54.0113 74.6903 72.9316 0.224957 0.842167 0.49005 0 0 0 
46.4246 74.67 75.3771 0.092364 0.842167 0.531246 0 0 0 
35.7867 74.6527 75.9687 -0.0463533 0.842169 0.537217 0 0 0 
27.7984 74.6241 74.4126 -0.181998 0.842168 0.507572 0 0 0 
19.1962 74.5606 70.4946 -0.305574 0.842168 0.444272 0 0 0 
11.8332 74.6405 64.1601 -0.40889 0.842168 0.351514 0 0 0 
5.81746 74.5988 55.4251 -0.485093 0.842169 0.235448 0 0 0 
3.11484 74.6476 47.8003 -0.529133 0.842169 0.103773 0 0 0 
2.02057 74.5961 38.1871 -0.538089 0.84217 -0.0347836 0 0 0 
4.03727 74.5145 26.7043 -0.51137 0.842169 -0.171034 0 0 0 
7.927 74.5321 18.884 -0.450744 0.842168 -0.295944 0 0 0 
14.4704 74.5425 11.3044 -0.360231 0.842167 -0.401233 0 0 0 
22.1146 74.531 6.05309 -0.245832 0.842167 -0.479918 0 0 0 
31.0549 74.5245 2.81084 -0.115134 0.842167 -0.526782 0 0 0 
40.7016 74.7182 2.26942 0.0170237 0.918382 -0.395329 0 0 0 
50.9628 74.8083 4.394 0.117409 0.918381 -0.377878 0 0 0 
57.7688 74.7213 7.28497 0.210008 0.918382 -0.335368 0 0 0 
66.5204 74.8195 14.7579 0.288682 0.918382 -0.270624 0 0 0 
72.131 74.8123 23.0774 0.348216 0.918382 -0.187936 0 0 0 
74.9683 74.7581 30.8155 0.384663 0.918382 -0.092787 0 0 0 
75.9484 74.7464 39.3083 0.395604 0.918382 0.00851346 0 0 0 
74.2651 74.7682 49.9674 0.380317 0.918381 0.109251 0 0 0 
70.2871 74.7656 58.6666 0.33981 0.918381 0.202744 0 0 0 
63.7928 74.7643 66.4412 0.276773 0.918381 0.282794 0 0 0 
55.2294 74.8505 71.9786 0.165081 0.918382 0.359614 0 0 0 
46.105 74.844 75.0523 0.06778 0.918382 0.389846 0 0 0 
35.8865 74.799 75.679 -0.0340156 0.918382 0.39423 0 0 0 
26.1738 74.85 73.341 -0.133556 0.918382 0.372475 0 0 0 
17.8477 74.824 68.9612 -0.224242 0.918381 0.326023 0 0 0 
11.5445 74.7736 63.4296 -0.300059 0.918381 0.257954 0 0 0 
6.52524 74.7834 56.0928 -0.35598 0.918382 0.172781 0 0 0 
3.01922 74.8501 45.1098 -0.388299 0.918382 0.0761524 0 0 0 
2.66902 74.8476 35.882 -0.394872 0.918381 -0.0255255 0 0 0 
4.30425 74.8577 27.9534 -0.375262 0.918382 -0.125511 0 0 0 
7.90563 74.8326 19.9433 -0.330773 0.918381 -0.217176 0 0 0 
14.058 74.8524 12.4721 -0.26435 0.918382 -0.294439 0 0 0 
23.6217 74.731 5.65136 -0.1804 0.918382 -0.352179 0 0 0 
32.4698 74.7178 2.81802 -0.084489 0.918382 -0.38657 0 0 0 
39.5503 74.8767 2.60101 0.0103984 0.970352 -0.241471 0 0 0 
50.7486 74.9371 4.76135 0.0717136 0.970353 -0.23081 0 0 0 
58.6222 74.8718 8.23729 0.128274 0.970353 -0.204845 0 0 0 
65.7788 74.8989 14.3107 0.176329 0.970353 -0.165299 0 0 0 
71.5603 74.8862 22.4422 0.212693 0.970353 -0.114793 0 0 0 
74.8474 74.8885 31.7466 0.234954 0.970353 -0.0566749 0 0 0 
75.0627 74.955 43.3984 0.240296 0.970353 0.0259534 0 0 0 
73.4367 74.9469 50.8085 0.225701 0.970353 0.0864527 0 0 0 
68.9845 74.9257 59.7881 0.196144 0.970353 0.141221 0 0 0 
63.3696 74.9293 66.1732 0.153579 0.970353 0.186625 0 0 0 
53.5923 74.9554 72.301 0.100833 0.970353 0.219656 0 0 0 
46.2584 74.9574 74.6065 0.0414005 0.970353 0.238121 0 0 0 
36.3877 74.8895 75.4764 -0.0207769 0.970353 0.240798 0 0 0 
25.3898 74.9201 72.7951 -0.0815772 0.970353 0.227511 0 0 0 
17.6178 74.9239 68.409 -0.136968 0.970353 0.199137 0 0 0 
11.0616 74.8926 62.3827 -0.183278 0.970353 0.15756 0 0 0 
6.81803 74.8779 56.1592 -0.217435 0.970353 0.105536 0 0 0 
3.34956 74.9082 45.7486 -0.237174 0.970353 0.0465142 0 0 0 
3.07085 74.9478 35.3418 -0.241189 0.970353 -0.015591 0 0 0 
5.45914 74.9077 25.3064 -0.221774 0.970353 -0.0960835 0 0 0 
10.7649 74.965 16.6996 -0.189886 0.970353 -0.149529 0 0 0 
16.7539 74.9456 10.6142 -0.145409 0.970353 -0.19306 0 0 0 
24.6554 74.908 5.73333 -0.0912895 0.970353 -0.223789 0 0 0 
32.977 74.8987 3.19699 -0.0311177 0.970353 -0.239682 0 0 0 
42.381 74.9746 3.1927 0.010465 0.996691 -0.0806064 0 0 0 
52.8621 74.9815 5.88433 0.0307014 0.996691 -0.0752622 0 0 0 
60.8064 74.977 10.3592 0.0489019 0.996691 -0.0649273 0 0 0 
68.0333 74.975 17.5733 0.0638602 0.996691 -0.0502877 0 0 0 
72.3302 74.98 25.2533 0.0745836 0.996691 -0.0323133 0 0 0 
74.6816 74.9717 32.9269 0.0803625 0.996691 -0.012197 0 0 0 
74.7531 74.974 44.8007 0.0797635 0.996691 0.015643 0 0 0 
71.6225 74.9952 54.1446 0.0731244 0.996691 0.0354922 0 0 0 
67.0582 74.9778 61.8679 0.0616373 0.996691 0.0529882 0 0 0 
59.4099 74.9906 68.6855 0.0460633 0.996691 0.066971 0 0 0 
50.2207 74.9773 73.4054 0.0274348 0.996691 0.076513 0 0 0 
41.8371 74.972 75.1044 0.00698748 0.996691 0.0809824 0 0 0 
33.7703 74.9705 74.8343 -0.0139233 0.996691 0.0800821 0 0 0 
22.9252 74.9965 71.0583 -0.0339108 0.996691 0.0738715 0 0 0 
17.1603 74.9682 67.838 -0.0516499 0.996691 0.0627633 0 0 0 
8.30281 74.99 57.4578 -0.0698028 0.996691 0.041647 0 0 0 
4.97644 74.9901 50.1399 -0.0781236 0.996691 0.0224421 0 0 0 
3.29214 74.9904 40.7514 -0.0812639 0.996691 0.00174894 0 0 0 
4.47554 74.9956 30.1136 -0.0790168 0.996691 -0.0190602 0 0 0 
7.52959 74.9703 21.645 -0.0715301 0.996691 -0.0386055 0 0 0 
13.3367 74.9773 13.9655 -0.0593008 0.996691 -0.0555912 0 0 0 
21.0101 74.9935 8.20293 -0.0431393 0.996691 -0.0688907 0 0 0 
28.5426 74.9787 4.71243 -0.0241176 0.996691 -0.0776221 0 0 0 
37.4626 74.9742 3.10549 -0.00349699 0.996691 -0.0812077 0 0 0 
36.2426 4.48346 66.0203 0.124507 0.339205 -0.932437 0 0 0 
36.1697 7.11824 66.9691 0.124507 0.339205 -0.932437 0 0 0 
34.2115 7.06051 66.6814 0.131158 0.341382 -0.930729 0 0 0 
34.1469 4.45766 65.7063 0.178882 0.341556 -0.922681 0 0 0 
32.9373 8.12026 66.795 0.206529 0.337933 -0.91823 0 0 0 
33.3441 6.29633 66.2153 0.206529 0.337933 -0.91823 0 0 0 
31.7853 7.33789 66.241 0.219532 0.341455 -0.913901 0 0 0 
31.289 4.86826 65.1605 0.266279 0.341517 -0.901367 0 0 0 
30.235 7.50125 65.8178 0.286924 0.337481 -0.896538 0 0 0 
30.0557 9.12106 66.3702 0.286924 0.337481 -0.896538 0 0 0 
30.4554 3.76992 64.4729 0.305891 0.341512 -0.888707 0 0 0 
29.6691 4.3941 64.4356 0.364503 0.341292 -0.866405 0 0 0 
28.9939 5.82928 64.7168 0.364503 0.341292 -0.866405 0 0 0 
28.013 5.76081 64.2883 0.352002 0.3358 -0.873689 0 0 0 
27.2403 7.16826 64.5107 0.389446 0.341553 -0.855379 0 0 0 
25.4268 8.18434 63.9773 0.43965 0.341292 -0.830799 0 0 0 
26.0672 8.45596 64.4279 0.43965 0.341292 -0.830799 0 0 0 
26.4411 5.24701 63.3102 0.433484 0.338428 -0.835199 0 0 0 
24.1949 6.99211 62.7445 0.511356 0.341293 -0.788692 0 0 0 
23.9425 8.82392 63.3736 0.511356 0.341293 -0.788692 0 0 0 
24.478 3.88968 61.5865 0.510835 0.341033 -0.789141 0 0 0 
23.7136 4.96143 61.5548 0.510835 0.341033 -0.789141 0 0 0 
22.9395 5.65383 61.3212 0.57906 0.341292 -0.740412 0 0 0 
23.1532 5.1016 61.2338 0.57906 0.341292 -0.740412 0 0 0 
21.6986 6.5223 60.751 0.57906 0.341292 -0.740412 0 0 0 
20.8045 7.82089 60.6503 0.57906 0.341292 -0.740412 0 0 0 
21.2297 4.16435 59.2558 0.642705 0.339377 -0.686843 0 0 0 
20.3023 8.75243 60.655 0.642705 0.339377 -0.686843 0 0 0 
20.6064 5.01466 59.0915 0.646678 0.341373 -0.682108 0 0 0 
20.1098 5.46946 58.8483 0.646678 0.341373 -0.682108 0 0 0 
19.0193 5.27611 57.6468 0.701256 0.338023 -0.627678 0 0 0 
18.7888 7.03042 58.334 0.701256 0.338023 -0.627678 0 0 0 
17.6975 6.43738 56.7814 0.708907 0.341448 -0.617141 0 0 0 
18.8601 3.56966 56.5303 0.708907 0.341448 -0.617141 0 0 0 
18.086 4.31416 56.0345 0.739715 0.341521 -0.579814 0 0 0 
16.7229 7.06061 55.883 0.75414 0.33749 -0.563359 0 0 0 
15.9232 7.24456 54.9082 0.764643 0.341507 -0.546529 0 0 0 
14.4801 8.50271 53.4408 0.799811 0.341293 -0.493783 0 0 0 
16.1209 6.57233 54.7643 0.799811 0.341293 -0.493783 0 0 0 
15.948 4.93305 53.3692 0.793573 0.335536 -0.507599 0 0 0 
16.0619 4.48265 53.2496 0.793573 0.335536 -0.507599 0 0 0 
15.3071 4.55923 51.9937 0.840322 0.341293 -0.421163 0 0 0 
13.1528 8.90977 51.2208 0.840322 0.341293 -0.421163 0 0 0 
14.7094 5.34073 51.4403 0.837629 0.338167 -0.428977 0 0 0 
14.3761 5.73926 51.1036 0.837629 0.338167 -0.428977 0 0 0 
14.6866 3.62912 49.9924 0.874256 0.341292 -0.345248 0 0 0 
14.3491 4.61909 50.1166 0.874256 0.341292 -0.345248 0 0 0 
13.451 4.90443 48.1307 0.873929 0.340774 -0.346585 0 0 0 
13.5785 5.22149 48.764 0.873929 0.340774 -0.346585 0 0 0 
12.3768 7.12198 47.3774 0.901348 0.341292 -0.26663 0 0 0 
12.357 7.44516 47.724 0.901348 0.341292 -0.26663 0 0 0 
12.8266 5.37996 46.6682 0.901348 0.341292 -0.26663 0 0 0 
13.2218 4.77093 47.2245 0.901348 0.341292 -0.26663 0 0 0 
11.1204 8.92381 45.1618 0.922001 0.339557 -0.18605 0 0 0 
11.0101 8.52267 43.8831 0.922001 0.339557 -0.18605 0 0 0 
11.7355 6.44699 43.6688 0.922423 0.341365 -0.180571 0 0 0 
12.2002 4.8429 42.8965 0.930425 0.341562 -0.132835 0 0 0 
11.4726 6.6917 42.3925 0.93535 0.338122 -0.103892 0 0 0 
10.8086 8.29965 41.6471 0.93535 0.338122 -0.103892 0 0 0 
11.53 6.19348 41.216 0.935434 0.341441 -0.0915546 0 0 0 
11.2268 6.95091 40.9047 0.938876 0.341525 -0.0432751 0 0 0 
10.5314 8.83177 40.3362 0.941093 0.337506 -0.020824 0 0 0 
10.9136 7.73216 39.79 0.941093 0.337506 -0.020824 0 0 0 
11.7014 5.50479 38.8192 0.93988 0.341501 -0.00170489 0 0 0 
10.7898 8.32918 36.7603 0.937888 0.341292 0.0623406 0 0 0 
10.6664 8.4365 38.0292 0.937888 0.341292 0.0623406 0 0 0 
12.3151 3.98091 37.3897 0.940959 0.335272 0.0467934 0 0 0 
11.1699 7.38244 36.1644 0.935722 0.341546 0.0881559 0 0 0 
11.8081 6.01305 35.242 0.928708 0.341292 0.144988 0 0 0 
11.2218 8.02752 34.256 0.928708 0.341292 0.144988 0 0 0 
12.5742 3.69975 35.7618 0.931244 0.337905 0.136401 0 0 0 
12.2448 5.32895 33.9909 0.922997 0.341574 0.177209 0 0 0 
11.7602 8.209 31.5391 0.91226 0.341292 0.226499 0 0 0 
11.3138 8.19495 33.3584 0.91226 0.341292 0.226499 0 0 0 
11.7143 8.58433 31.1577 0.913024 0.340514 0.224581 0 0 0 
12.3776 6.73694 31.262 0.901821 0.341587 0.264644 0 0 0 
12.4547 7.9416 29.6888 0.888672 0.341293 0.306238 0 0 0 
12.1042 8.29041 30.3172 0.888672 0.341293 0.306238 0 0 0 
13.7753 3.60477 30.6898 0.888672 0.341293 0.306238 0 0 0 
12.6664 8.30212 28.6728 0.872392 0.341584 0.349646 0 0 0 
13.4085 8.77052 26.5944 0.85864 0.339746 0.38381 0 0 0 
13.8282 5.83274 28.2559 0.85864 0.339746 0.38381 0 0 0 
13.9388 6.98273 26.995 0.856149 0.341356 0.387924 0 0 0 
15.4715 3.61597 26.6446 0.834977 0.341565 0.431447 0 0 0 
15.0157 6.49114 25.335 0.821836 0.338229 0.458461 0 0 0 
14.2391 7.98554 25.6247 0.821836 0.338229 0.458461 0 0 0 
15.8644 4.70775 25.1546 0.815116 0.341434 0.467984 0 0 0 
16.1035 5.56156 24.1796 0.789915 0.34153 0.509305 0 0 0 
16.7267 4.39606 24.0048 0.778309 0.337531 0.529442 0 0 0 
15.5522 8.72762 22.9701 0.778309 0.337531 0.529442 0 0 0 
16.3478 7.57964 22.5332 0.766623 0.341496 0.543755 0 0 0 
17.2082 6.58946 22.0126 0.727421 0.341292 0.595297 0 0 0 
17.2895 6.90992 21.7295 0.727421 0.341292 0.595297 0 0 0 
17.7466 5.04384 22.2401 0.739446 0.335007 0.583944 0 0 0 
18.3527 5.79869 21.051 0.711115 0.341542 0.614544 0 0 0 
18.8985 5.70604 20.507 0.671962 0.341292 0.657257 0 0 0 
19.2289 5.70044 20.1721 0.671962 0.341292 0.657257 0 0 0 
19.4538 6.94685 19.2935 0.679553 0.337642 0.651311 0 0 0 
19.6795 9.08801 17.9836 0.611244 0.341293 0.714073 0 0 0 
21.0493 7.42874 17.6041 0.611244 0.341293 0.714073 0 0 0 
21.4748 5.30705 18.2518 0.613559 0.340254 0.712582 0 0 0 
21.3935 7.41946 17.3132 0.613559 0.340254 0.712582 0 0 0 
22.2298 8.32989 16.2539 0.545741 0.341293 0.765301 0 0 0 
21.9076 7.61549 16.8023 0.545741 0.341293 0.765301 0 0 0 
23.856 6.39009 15.9593 0.545742 0.341292 0.765301 0 0 0 
23.6767 4.55236 16.9067 0.545742 0.341292 0.765301 0 0 0 
24.7711 7.91448 14.7563 0.476217 0.339942 0.810961 0 0 0 
24.4005 9.15775 14.4528 0.476217 0.339942 0.810961 0 0 0 
25.5255 5.82795 15.1901 0.472427 0.341348 0.812585 0 0 0 
25.583 6.91403 14.7004 0.472427 0.341348 0.812585 0 0 0 
26.6234 5.59512 14.6728 0.402927 0.338344 0.850396 0 0 0 
26.2443 7.81776 13.9681 0.402927 0.338344 0.850396 0 0 0 
28.2606 4.14192 14.489 0.392565 0.341427 0.854003 0 0 0 
28.33 4.35061 14.3737 0.392565 0.341427 0.854003 0 0 0 
29.735 6.91355 12.8229 0.32629 0.337564 0.882941 0 0 0 
28.8086 9.08197 12.3362 0.32629 0.337564 0.882941 0 0 0 
30.3639 5.26428 13.2306 0.309115 0.341491 0.887599 0 0 0 
32.6563 9.15815 11.1097 0.246625 0.341292 0.907026 0 0 0 
31.9416 7.05399 12.0958 0.246625 0.341292 0.907026 0 0 0 
32.4065 5.82864 12.4175 0.26369 0.334742 0.904663 0 0 0 
33.1181 4.75613 12.6392 0.222836 0.341538 0.913069 0 0 0 
33.8332 6.9158 11.7118 0.165497 0.341293 0.925273 0 0 0 
34.3215 6.48808 11.7822 0.165497 0.341293 0.925273 0 0 0 
34.3757 4.09847 12.644 0.175818 0.33738 0.924804 0 0 0 
34.8811 6.6159 11.6295 0.175818 0.33738 0.924804 0 0 0 
36.9316 7.33329 11.1412 0.0830731 0.341293 0.936279 0 0 0 
35.815 8.93075 10.658 0.0830731 0.341293 0.936279 0 0 0 
37.4217 3.77755 12.3877 0.0865126 0.339994 0.93644 0 0 0 
37.4973 4.63946 12.0677 0.0865126 0.339994 0.93644 0 0 0 
38.9567 9.07018 10.4264 -0 0.341292 0.939957 0 0 0 
38.3727 7.59536 10.9619 -0 0.341292 0.939957 0 0 0 
39.7913 5.35024 11.7771 -0 0.341292 0.939957 0 0 0 
40.311 4.77363 11.9865 -0 0.341292 0.939957 0 0 0 
41.9641 8.21354 10.8768 -0.0831098 0.340147 0.936693 0 0 0 
40.5524 7.3367 11.07 -0.0831098 0.340147 0.936693 0 0 0 
42.3219 3.47011 12.6377 -0.0864677 0.341339 0.935955 0 0 0 
42.8061 4.14432 12.4428 -0.134522 0.34157 0.930179 0 0 0 
43.4172 5.99507 11.8625 -0.165677 0.338467 0.926278 0 0 0 
44.2121 7.96423 11.2852 -0.165677 0.338467 0.926278 0 0 0 
44.595 4.86092 12.4969 -0.175546 0.34142 0.923372 0 0 0 
45.4974 6.5475 12.0596 -0.222836 0.341538 0.913069 0 0 0 
46.1954 5.90038 12.4855 -0.246974 0.337605 0.90831 0 0 0 
46.8634 6.29015 12.5222 -0.246974 0.337605 0.90831 0 0 0 
47.4025 6.11081 12.7466 -0.263012 0.341485 0.902337 0 0 0 
47.6128 4.99822 13.2435 -0.325823 0.341292 0.881679 0 0 0 
47.323 3.78362 13.6066 -0.325823 0.341292 0.881679 0 0 0 
48.2016 3.49974 14.0215 -0.309943 0.334477 0.889978 0 0 0 
48.8328 4.3854 13.9092 -0.348067 0.341534 0.873043 0 0 0 
49.9291 4.32077 14.3968 -0.402471 0.341292 0.849433 0 0 0 
50.9284 7.64192 13.5359 -0.402471 0.341292 0.849433 0 0 0 
51.3364 5.57471 14.5497 -0.393214 0.337117 0.855415 0 0 0 
52.2587 7.50764 14.2188 -0.429932 0.341567 0.835757 0 0 0 
54.2711 8.48827 14.9852 -0.475969 0.341292 0.810539 0 0 0 
52.2535 6.11606 14.7993 -0.475969 0.341292 0.810539 0 0 0 
53.6332 4.45955 16.2984 -0.472721 0.339734 0.81309 0 0 0 
53.9549 5.1543 16.2023 -0.507863 0.341585 0.790819 0 0 0 
55.0838 6.76127 16.2893 -0.545741 0.341292 0.765301 0 0 0 
55.5332 6.03602 16.9332 -0.545742 0.341293 0.765301 0 0 0 
55.1604 5.97939 16.6926 -0.545742 0.341293 0.765301 0 0 0 
56.198 4.76426 18.0171 -0.611463 0.34036 0.71433 0 0 0 
57.1993 8.60535 17.044 -0.611463 0.34036 0.71433 0 0 0 
56.7019 4.36416 18.6417 -0.613304 0.34133 0.712286 0 0 0 
58.5728 8.6426 18.2024 -0.613304 0.34133 0.712286 0 0 0 
57.939 4.70465 19.5695 -0.649096 0.341572 0.679708 0 0 0 
58.3606 5.32644 19.6784 -0.672658 0.338598 0.657938 0 0 0 
60.0604 8.2479 19.9128 -0.672658 0.338598 0.657938 0 0 0 
58.5566 3.78217 20.6872 -0.67857 0.341412 0.650369 0 0 0 
60.123 7.00358 20.6484 -0.711115 0.341542 0.614544 0 0 0 
60.3986 6.13116 21.4746 -0.728437 0.337654 0.596129 0 0 0 
61.4184 8.7538 21.2352 -0.728437 0.337654 0.596129 0 0 0 
60.2299 3.93492 22.5303 -0.73762 0.341479 0.582502 0 0 0 
61.4161 5.82653 22.9695 -0.777186 0.341292 0.528678 0 0 0 
61.8895 8.10408 22.1952 -0.777186 0.341292 0.528678 0 0 0 
60.6117 3.54581 23.2555 -0.768756 0.334212 0.545267 0 0 0 
61.9797 4.11756 24.8971 -0.789915 0.34153 0.509305 0 0 0 
63.6888 7.5747 25.3714 -0.82087 0.341292 0.457922 0 0 0 
63.2306 6.39309 25.4306 -0.82087 0.341292 0.457922 0 0 0 
63.5926 6.78702 25.7854 -0.816548 0.336854 0.468806 0 0 0 
64.3219 7.53575 26.5436 -0.858129 0.341293 0.383581 0 0 0 
63.8775 5.57767 27.2917 -0.858129 0.341293 0.383581 0 0 0 
64.3673 5.87132 28.1211 -0.85677 0.339473 0.388205 0 0 0 
63.9676 4.15741 28.7377 -0.85677 0.339473 0.388205 0 0 0 
65.5038 7.13528 29.7561 -0.888672 0.341293 0.306238 0 0 0 
64.681 5.38162 29.3227 -0.888672 0.341293 0.306238 0 0 0 
64.2421 4.0309 29.5545 -0.888672 0.341293 0.306238 0 0 0 
65.3571 6.28831 30.2743 -0.888672 0.341293 0.306238 0 0 0 
65.5603 5.62201 31.7012 -0.91251 0.340581 0.226561 0 0 0 
66.1583 7.23752 31.6812 -0.91251 0.340581 0.226561 0 0 0 
66.9584 8.18171 33.4875 -0.91274 0.341321 0.224511 0 0 0 
65.612 4.54198 33.5474 -0.91274 0.341321 0.224511 0 0 0 
66.7092 7.38241 33.7279 -0.929621 0.338737 0.14513 0 0 0 
66.6076 6.99878 33.9723 -0.929621 0.338737 0.14513 0 0 0 
65.8341 4.19005 35.6408 -0.929993 0.341405 0.136218 0 0 0 
65.8623 4.18393 35.849 -0.929993 0.341405 0.136218 0 0 0 
66.7386 6.3227 36.7796 -0.939177 0.337712 0.0624263 0 0 0 
66.687 6.16458 36.8584 -0.939177 0.337712 0.0624263 0 0 0 
66.5757 5.64242 38.1453 -0.938731 0.341473 0.0466826 0 0 0 
67.4612 8.07223 39.2108 -0.939727 0.341292 -0.0207937 0 0 0 
67.7031 8.79552 40.1499 -0.939727 0.341292 -0.0207937 0 0 0 
66.1255 4.3816 39.6929 -0.94259 0.333946 -0.00170981 0 0 0 
67.2945 7.70687 40.8764 -0.938876 0.341525 -0.0432751 0 0 0 
67.7619 9.05215 41.1617 -0.934212 0.341292 -0.103766 0 0 0 
66.5154 5.72699 41.4478 -0.934212 0.341292 -0.103766 0 0 0 
66.3372 5.5772 42.6505 -0.937173 0.336591 -0.0917249 0 0 0 
66.2189 5.35905 43.0044 -0.930425 0.341562 -0.132835 0 0 0 
66.2761 5.78088 43.5946 -0.921385 0.341292 -0.185925 0 0 0 
67.1187 8.05565 43.5948 -0.921385 0.341292 -0.185925 0 0 0 
66.5808 7.8101 45.8227 -0.923187 0.339212 -0.18072 0 0 0 
65.8476 4.98903 44.2731 -0.923187 0.339212 -0.18072 0 0 0 
65.2752 4.52219 46.0541 -0.901348 0.341292 -0.26663 0 0 0 
65.9382 6.3923 46.2066 -0.901348 0.341292 -0.26663 0 0 0 
65.4965 6.43697 47.7571 -0.901348 0.341292 -0.26663 0 0 0 
65.6472 6.30576 47.0794 -0.901348 0.341292 -0.26663 0 0 0 
65.2471 7.32275 49.3705 -0.874419 0.34081 -0.345312 0 0 0 
65.84 8.6791 49.2078 -0.874419 0.34081 -0.345312 0 0 0 
64.3525 5.92544 50.2521 -0.873748 0.341311 -0.346513 0 0 0 
63.8111 4.5841 50.2805 -0.854663 0.341576 -0.390994 0 0 0 
64.407 7.33861 51.3265 -0.8411 0.338885 -0.421554 0 0 0 
63.8463 6.45151 51.7322 -0.8411 0.338885 -0.421554 0 0 0 
63.7644 6.36501 51.8256 -0.83659 0.341397 -0.428445 0 0 0 
62.4447 4.33502 52.7264 -0.813378 0.34155 -0.470914 0 0 0 
63.0439 8.31778 54.4876 -0.800891 0.337777 -0.49445 0 0 0 
62.8352 8.2121 54.7535 -0.800891 0.337777 -0.49445 0 0 0 
61.6488 4.66439 54.2211 -0.791776 0.341467 -0.50645 0 0 0 
62.1186 7.19353 55.1491 -0.753041 0.341292 -0.562538 0 0 0 
61.47 5.64151 55.0757 -0.753041 0.341292 -0.562538 0 0 0 
61.1709 6.83755 56.2095 -0.766927 0.333681 -0.548161 0 0 0 
60.2409 3.992 55.7402 -0.739715 0.341521 -0.579814 0 0 0 
61.1088 8.42533 57.2346 -0.700376 0.341293 -0.626891 0 0 0 
59.8488 4.29025 56.391 -0.700376 0.341293 -0.626891 0 0 0 
59.6674 4.88056 56.9177 -0.710299 0.336328 -0.618352 0 0 0 
58.7303 4.51901 57.7821 -0.680885 0.341559 -0.647868 0 0 0 
58.7959 8.26976 59.6153 -0.642231 0.341292 -0.686337 0 0 0 
58.8566 8.93996 59.8918 -0.642231 0.341292 -0.686337 0 0 0 
58.0602 3.97982 58.1718 -0.647281 0.338951 -0.682744 0 0 0 
56.3686 8.73912 61.9119 -0.57906 0.341292 -0.740412 0 0 0 
57.5568 8.6315 60.933 -0.57906 0.341292 -0.740412 0 0 0 
56.1675 4.9271 60.312 -0.57906 0.341292 -0.740412 0 0 0 
55.9434 6.44329 61.1862 -0.57906 0.341292 -0.740412 0 0 0 
54.0543 7.37748 62.9092 -0.511404 0.341047 -0.788766 0 0 0 
53.7759 8.70374 63.6632 -0.511404 0.341047 -0.788766 0 0 0 
53.6126 7.99391 63.4619 -0.510782 0.341302 -0.789059 0 0 0 
53.7308 5.78032 62.4278 -0.510782 0.341302 -0.789059 0 0 0 
52.4365 8.59152 64.3484 -0.440031 0.339041 -0.831519 0 0 0 
53.3914 8.24891 63.7034 -0.440031 0.339041 -0.831519 0 0 0 
51.0178 4.10366 63.2575 -0.432991 0.341389 -0.834249 0 0 0 
50.8143 3.74473 63.2163 -0.432991 0.341389 -0.834249 0 0 0 
51.2911 8.29181 64.829 -0.389446 0.341553 -0.855379 0 0 0 
50.7671 6.82148 64.4804 -0.364985 0.337851 -0.86755 0 0 0 
50.2753 8.123 65.1941 -0.364985 0.337851 -0.86755 0 0 0 
49.4008 3.80316 63.8733 -0.351241 0.341461 -0.8718 0 0 0 
48.2377 8.66798 66.1818 -0.286505 0.341292 -0.895229 0 0 0 
47.3672 8.10307 66.245 -0.286505 0.341292 -0.895229 0 0 0 
47.0516 5.96724 65.5455 -0.306836 0.333414 -0.891452 0 0 0 
46.7344 6.5892 65.8781 -0.266279 0.341517 -0.901367 0 0 0 
45.74 6.00593 65.9066 -0.206263 0.341293 -0.917047 0 0 0 
45.4851 7.2122 66.4129 -0.206263 0.341293 -0.917047 0 0 0 
44.9948 5.01251 65.7137 -0.219985 0.336064 -0.915788 0 0 0 
43.5182 7.43135 66.886 -0.124407 0.341293 -0.931688 0 0 0 
43.2921 7.23944 66.8458 -0.124407 0.341293 -0.931688 0 0 0 
41.9144 6.02074 66.5903 -0.131293 0.33869 -0.931693 0 0 0 
42.5574 6.16431 66.5519 -0.131293 0.33869 -0.931693 0 0 0 
41.1989 6.47165 66.8103 -0.0415778 0.341292 -0.939037 0 0 0 
41.3714 6.61458 66.8546 -0.0415778 0.341292 -0.939037 0 0 0 
39.1898 7.46468 67.2602 -0.0415774 0.341293 -0.939037 0 0 0 
41.4354 3.54771 65.7371 -0.0415774 0.341293 -0.939037 0 0 0 
38.8912 5.15341 66.4129 0.0415778 0.341293 -0.939037 0 0 0 
38.7531 7.76412 67.3556 0.0415778 0.341293 -0.939037 0 0 0 
37.0972 4.24841 66.0045 0.0415774 0.341292 -0.939037 0 0 0 
37.3693 5.76588 66.5681 0.0415774 0.341292 -0.939037 0 0 0 
42.5169 9.6717 67.8167 -0.126158 0.302376 -0.944803 0 0 0 
42.3842 12.086 68.6071 -0.126158 0.302376 -0.944803 0 0 0 
43.4603 11.6913 68.3371 -0.126158 0.302376 -0.944803 0 0 0 
43.6319 11.2903 68.1858 -0.126158 0.302376 -0.944803 0 0 0 
45.1496 10.1609 67.5388 -0.209166 0.302376 -0.929956 0 0 0 
45.1388 9.54753 67.3417 -0.209166 0.302376 -0.929956 0 0 0 
45.6833 12.1772 68.0743 -0.209166 0.302376 -0.929956 0 0 0 
46.369 10.503 67.3757 -0.209166 0.302376 -0.929956 0 0 0 
47.1164 11.566 67.5296 -0.290538 0.302376 -0.907831 0 0 0 
47.7331 11.4942 67.3084 -0.290538 0.302376 -0.907831 0 0 0 
47.9105 14.2495 68.1693 -0.290538 0.302376 -0.907831 0 0 0 
49.1905 10.4325 66.4883 -0.290538 0.302376 -0.907831 0 0 0 
49.8662 12.9492 67.0742 -0.369634 0.302376 -0.878601 0 0 0 
50.1571 9.29754 65.6951 -0.369634 0.302376 -0.878601 0 0 0 
51.0387 10.8734 65.8666 -0.369634 0.302376 -0.878601 0 0 0 
52.1112 14.1658 66.5485 -0.369634 0.302376 -0.878601 0 0 0 
52.0649 11.6266 65.6621 -0.445839 0.302376 -0.842494 0 0 0 
53.1634 9.47914 64.3101 -0.445839 0.302376 -0.842494 0 0 0 
53.2794 13.8441 65.8153 -0.445839 0.302376 -0.842494 0 0 0 
52.7463 14.0978 66.1885 -0.445839 0.302376 -0.842494 0 0 0 
53.968 9.37479 63.8171 -0.518554 0.302376 -0.799794 0 0 0 
54.2315 11.8159 64.5692 -0.518554 0.302376 -0.799794 0 0 0 
56.213 13.2019 63.8085 -0.518554 0.302376 -0.799794 0 0 0 
55.9431 12.2379 63.619 -0.518554 0.302376 -0.799794 0 0 0 
55.7396 10.3176 63.025 -0.518554 0.302376 -0.799794 0 0 0 
56.4151 9.40295 62.1675 -0.587211 0.302376 -0.750834 0 0 0 
57.0755 9.47769 61.681 -0.587211 0.302376 -0.750834 0 0 0 
58.174 12.1029 61.8792 -0.587211 0.302376 -0.750834 0 0 0 
57.7603 12.8774 62.5146 -0.587211 0.302376 -0.750834 0 0 0 
58.5826 10.9921 61.0536 -0.651272 0.302376 -0.695998 0 0 0 
59.0537 11.4516 60.8125 -0.651272 0.302376 -0.695998 0 0 0 
59.5122 13.4052 61.2322 -0.651272 0.302376 -0.695998 0 0 0 
59.4831 13.1184 61.1348 -0.651272 0.302376 -0.695998 0 0 0 
60.769 9.17645 58.022 -0.710235 0.302376 -0.635716 0 0 0 
60.9564 12.035 59.1723 -0.710235 0.302376 -0.635716 0 0 0 
61.2741 13.3847 59.4594 -0.710235 0.302376 -0.635716 0 0 0 
61.2631 11.9778 58.8025 -0.710235 0.302376 -0.635716 0 0 0 
62.636 11.3988 56.8363 -0.763641 0.302376 -0.570457 0 0 0 
62.0148 10.0087 56.9311 -0.763641 0.302376 -0.570457 0 0 0 
62.8256 13.6458 57.7735 -0.763641 0.302376 -0.570457 0 0 0 
63.1553 11.8288 56.3691 -0.763641 0.302376 -0.570457 0 0 0 
63.9392 9.62194 53.8917 -0.81107 0.302376 -0.500734 0 0 0 
64.2533 12.0109 54.8257 -0.81107 0.302376 -0.500734 0 0 0 
64.97 14.6127 55.2358 -0.811069 0.302376 -0.500735 0 0 0 
64.3802 13.7242 55.6548 -0.811069 0.302376 -0.500735 0 0 0 
65.6783 14.1208 53.7665 -0.852151 0.302376 -0.427092 0 0 0 
65.0823 9.79935 51.8963 -0.852151 0.302376 -0.427092 0 0 0 
65.8618 13.5502 52.9965 -0.852151 0.302376 -0.427092 0 0 0 
65.7387 12.4925 52.4932 -0.852151 0.302376 -0.427092 0 0 0 
66.2381 9.63522 49.0849 -0.886563 0.302376 -0.350108 0 0 0 
66.1226 11.2248 50.7503 -0.886563 0.302376 -0.350108 0 0 0 
66.4875 10.4541 49.1605 -0.886563 0.302376 -0.350108 0 0 0 
67.0623 13.4272 50.2729 -0.886563 0.302376 -0.350108 0 0 0 
67.0186 9.99119 47.0266 -0.914036 0.302376 -0.270383 0 0 0 
66.7452 9.90237 47.8515 -0.914036 0.302376 -0.270383 0 0 0 
67.763 12.9736 47.8456 -0.914036 0.302376 -0.270383 0 0 0 
67.7322 12.4709 47.3876 -0.914036 0.302376 -0.270383 0 0 0 
68.5512 13.8944 46.1161 -0.934356 0.302376 -0.188543 0 0 0 
68.2037 12.9317 46.2944 -0.934356 0.302376 -0.188543 0 0 0 
67.9668 10.9773 44.3339 -0.934356 0.302376 -0.188543 0 0 0 
68.2569 11.6089 43.9094 -0.934356 0.302376 -0.188543 0 0 0 
68.8852 13.227 43.0908 -0.947363 0.302376 -0.105226 0 0 0 
67.935 10.1195 42.7161 -0.947363 0.302376 -0.105226 0 0 0 
68.2296 10.4962 41.1466 -0.947363 0.302376 -0.105226 0 0 0 
68.6364 11.8116 41.2631 -0.947363 0.302376 -0.105226 0 0 0 
68.6499 11.7599 40.6291 -0.952955 0.302376 -0.0210864 0 0 0 
68.0052 9.74217 40.8289 -0.952955 0.302376 -0.0210864 0 0 0 
69.3621 13.9129 39.3132 -0.952955 0.302376 -0.0210868 0 0 0 
68.5573 11.3553 39.0119 -0.952955 0.302376 -0.0210868 0 0 0 
69.1122 13.0898 38.3428 -0.95109 0.302376 0.0632181 0 0 0 
67.9723 9.61791 37.8 -0.95109 0.302376 0.0632181 0 0 0 
68.8545 12.5466 37.064 -0.95109 0.302376 0.0632185 0 0 0 
68.8536 12.6171 36.7134 -0.95109 0.302376 0.0632185 0 0 0 
67.8722 9.73326 35.8487 -0.941781 0.302376 0.147029 0 0 0 
68.8759 13.0854 35.3839 -0.941781 0.302376 0.147029 0 0 0 
69.0544 14.1406 34.3573 -0.941781 0.302376 0.147028 0 0 0 
68.6532 12.7284 34.6918 -0.941781 0.302376 0.147028 0 0 0 
68.9412 13.8095 34.3133 -0.941781 0.302376 0.147028 0 0 0 
67.7476 10.624 33.2647 -0.925101 0.302376 0.229688 0 0 0 
67.3871 10.4691 32.0169 -0.925101 0.302376 0.229688 0 0 0 
68.2317 13.8539 30.9627 -0.925101 0.302376 0.229688 0 0 0 
68.7462 14.7065 31.9121 -0.925101 0.302376 0.229688 0 0 0 
66.7985 11.1274 29.3407 -0.901182 0.302376 0.310549 0 0 0 
66.2657 9.39093 29.4856 -0.901182 0.302376 0.310549 0 0 0 
67.215 12.379 29.3309 -0.901181 0.302376 0.310549 0 0 0 
66.5502 10.7414 28.996 -0.901181 0.302376 0.310549 0 0 0 
65.5846 10.0937 27.1974 -0.870209 0.302376 0.388981 0 0 0 
65.3658 9.44008 27.216 -0.870209 0.302376 0.388981 0 0 0 
66.9586 13.8127 27.3802 -0.870209 0.302376 0.388981 0 0 0 
67.446 14.821 27.6867 -0.870209 0.302376 0.388981 0 0 0 
65.054 10.198 25.9611 -0.832425 0.302376 0.464368 0 0 0 
65.1479 11.5989 25.2173 -0.832425 0.302376 0.464368 0 0 0 
65.4834 14.5123 23.9216 -0.832425 0.302376 0.464368 0 0 0 
64.2754 11.0677 23.999 -0.832425 0.302376 0.464368 0 0 0 
63.5028 10.5806 23.0838 -0.788127 0.302376 0.53612 0 0 0 
64.5894 13.5574 23.0021 -0.788127 0.302376 0.53612 0 0 0 
63.4413 13.5442 21.3218 -0.788127 0.302376 0.53612 0 0 0 
62.4695 10.2953 21.7257 -0.788127 0.302376 0.53612 0 0 0 
63.0681 13.3914 20.9014 -0.73766 0.302376 0.603677 0 0 0 
61.3028 10.4475 20.2189 -0.73766 0.302376 0.603677 0 0 0 
62.6296 13.8004 20.1608 -0.73766 0.302376 0.603677 0 0 0 
61.8624 12.0183 20.1158 -0.73766 0.302376 0.603677 0 0 0 
60.9529 12.1873 18.9824 -0.681421 0.302376 0.666509 0 0 0 
60.898 11.1557 19.3943 -0.681421 0.302376 0.666509 0 0 0 
61.0438 13.812 18.3382 -0.681421 0.302376 0.666509 0 0 0 
59.4653 11.1412 17.936 -0.681421 0.302376 0.666509 0 0 0 
57.4181 9.57352 16.7942 -0.619848 0.302376 0.724125 0 0 0 
57.4715 9.43357 16.8984 -0.619848 0.302376 0.724125 0 0 0 
58.4981 14.5942 15.6222 -0.619848 0.302376 0.724125 0 0 0 
57.8904 13.2122 15.6792 -0.619848 0.302376 0.724125 0 0 0 
56.1272 9.55776 15.8085 -0.553424 0.302376 0.776074 0 0 0 
56.4509 11.0262 15.4672 -0.553424 0.302376 0.776074 0 0 0 
56.2169 13.8079 14.2165 -0.553424 0.302376 0.776074 0 0 0 
55.4354 11.726 14.4704 -0.553424 0.302376 0.776074 0 0 0 
54.4812 12.2609 13.685 -0.482669 0.302376 0.821949 0 0 0 
53.9377 10.0955 14.1624 -0.482669 0.302376 0.821949 0 0 0 
53.9778 13.3277 12.9969 -0.482669 0.302376 0.821948 0 0 0 
54.3603 12.4536 13.5431 -0.482669 0.302376 0.821948 0 0 0 
51.8425 10.9564 12.7284 -0.408136 0.302376 0.86139 0 0 0 
52.7159 10.2818 13.3791 -0.408136 0.302376 0.86139 0 0 0 
50.9208 13.8933 11.2607 -0.408136 0.302376 0.86139 0 0 0 
51.4707 14.8064 11.2008 -0.408136 0.302376 0.86139 0 0 0 
50.6588 13.3048 11.3563 -0.33041 0.302376 0.894091 0 0 0 
50.5451 12.4242 11.6121 -0.33041 0.302376 0.894091 0 0 0 
48.3981 12.3004 10.8606 -0.330409 0.302376 0.894091 0 0 0 
48.7101 14.7405 10.1506 -0.330409 0.302376 0.894091 0 0 0 
49.0358 12.1252 11.1555 -0.330409 0.302376 0.894091 0 0 0 
46.5856 9.4986 11.2687 -0.250096 0.302376 0.919794 0 0 0 
46.4146 13.822 9.80087 -0.250096 0.302376 0.919794 0 0 0 
46.1202 12.2982 10.2218 -0.250096 0.302376 0.919794 0 0 0 
47.3383 14.5419 9.81537 -0.250096 0.302376 0.919794 0 0 0 
44.8953 11.4341 10.2375 -0.167827 0.302376 0.938298 0 0 0 
44.6342 11.3389 10.2215 -0.167827 0.302376 0.938298 0 0 0 
43.4062 12.0457 9.77408 -0.167827 0.302376 0.938298 0 0 0 
44.2724 13.1036 9.58811 -0.167827 0.302376 0.938298 0 0 0 
42.3131 12.1994 9.59603 -0.0842425 0.302376 0.949459 0 0 0 
42.7058 13.0011 9.37556 -0.0842425 0.302376 0.949459 0 0 0 
41.4792 13.4889 9.1114 -0.0842429 0.302376 0.949459 0 0 0 
41.3973 11.8025 9.64116 -0.0842429 0.302376 0.949459 0 0 0 
39.767 9.63231 10.2439 0 0.302376 0.953189 0 0 0 
39.6926 11.8699 9.53411 0 0.302376 0.953189 0 0 0 
38.4312 13.6002 8.98523 0 0.302376 0.953189 0 0 0 
38.6186 14.4025 8.73072 0 0.302376 0.953189 0 0 0 
37.5512 12.3716 9.39752 0.0842425 0.302376 0.949459 0 0 0 
36.2016 11.1438 9.90829 0.0842425 0.302376 0.949459 0 0 0 
36.9361 13.4786 9.09955 0.084243 0.302376 0.949459 0 0 0 
36.1031 12.5313 9.47513 0.084243 0.302376 0.949459 0 0 0 
33.7248 10.0565 10.6144 0.167827 0.302376 0.938298 0 0 0 
34.7312 13.7255 9.25202 0.167827 0.302376 0.938298 0 0 0 
33.6188 11.9702 10.0166 0.167827 0.302376 0.938298 0 0 0 
33.1955 13.9087 9.46764 0.167827 0.302376 0.938298 0 0 0 
30.924 9.90879 11.3338 0.250096 0.302376 0.919794 0 0 0 
32.2829 10.8075 10.6688 0.250096 0.302376 0.919794 0 0 0 
31.455 13.3552 10.0564 0.250096 0.302376 0.919794 0 0 0 
30.9505 12.7951 10.3777 0.250096 0.302376 0.919794 0 0 0 
29.988 11.1782 11.1879 0.33041 0.302376 0.894091 0 0 0 
29.7395 11.961 11.015 0.33041 0.302376 0.894091 0 0 0 
28.1054 13.9605 10.9427 0.330409 0.302376 0.894091 0 0 0 
27.5969 13.5123 11.2822 0.330409 0.302376 0.894091 0 0 0 
27.802 9.24565 12.6659 0.408136 0.302376 0.86139 0 0 0 
27.1807 10.8029 12.4136 0.408136 0.302376 0.86139 0 0 0 
26.7958 14.9375 11.1446 0.408136 0.302376 0.86139 0 0 0 
25.4885 13.4139 12.2988 0.408136 0.302376 0.86139 0 0 0 
24.6497 13.8771 12.5701 0.482669 0.302376 0.821948 0 0 0 
25.2517 9.70424 13.7517 0.482669 0.302376 0.821948 0 0 0 
24.1569 14.7458 12.54 0.482669 0.302376 0.821948 0 0 0 
23.0049 12.3233 14.1076 0.482669 0.302376 0.821948 0 0 0 
22.0207 9.63924 15.846 0.553424 0.302376 0.776074 0 0 0 
22.968 11.2937 14.5259 0.553424 0.302376 0.776074 0 0 0 
20.5258 14.4284 15.0461 0.553424 0.302376 0.776074 0 0 0 
22.2406 13.9773 13.999 0.553424 0.302376 0.776074 0 0 0 
20.246 13.4639 15.6669 0.619848 0.302376 0.724125 0 0 0 
20.1295 9.64192 17.3626 0.619848 0.302376 0.724125 0 0 0 
18.8346 13.0827 17.0343 0.619848 0.302376 0.724125 0 0 0 
19.6335 13.2301 16.2889 0.619848 0.302376 0.724125 0 0 0 
18.2543 12.5313 17.8426 0.681421 0.302376 0.666509 0 0 0 
19.072 9.63362 18.3211 0.681421 0.302376 0.666509 0 0 0 
17.6108 11.5662 18.9383 0.681421 0.302376 0.666509 0 0 0 
17.6491 13.2358 18.1417 0.681421 0.302376 0.666509 0 0 0 
16.5986 14.6685 18.5657 0.681421 0.302376 0.666509 0 0 0 
17.4001 9.26479 20.2518 0.73766 0.302376 0.603677 0 0 0 
17.0212 10.8474 19.922 0.73766 0.302376 0.603677 0 0 0 
15.6062 12.3594 20.8937 0.73766 0.302376 0.603677 0 0 0 
15.6223 14.0724 20.016 0.73766 0.302376 0.603677 0 0 0 
15.0851 11.1005 22.2865 0.788127 0.302376 0.53612 0 0 0 
15.0148 11.5824 22.118 0.788127 0.302376 0.53612 0 0 0 
14.1995 13.9265 21.9945 0.788127 0.302376 0.53612 0 0 0 
13.9044 13.931 22.4257 0.788127 0.302376 0.53612 0 0 0 
13.4652 11.6016 24.5556 0.832425 0.302376 0.464368 0 0 0 
14.0904 9.53833 24.7784 0.832425 0.302376 0.464368 0 0 0 
13.3408 9.74864 25.9852 0.832425 0.302376 0.464368 0 0 0 
12.274 14.6505 24.7056 0.832425 0.302376 0.464368 0 0 0 
12.2092 13.1315 25.8452 0.870208 0.302376 0.388981 0 0 0 
12.8797 10.3481 26.5088 0.870208 0.302376 0.388981 0 0 0 
11.2585 14.1903 27.149 0.870209 0.302376 0.388981 0 0 0 
11.2048 13.4327 27.8581 0.870209 0.302376 0.388981 0 0 0 
11.8004 9.34731 30.0472 0.901182 0.302376 0.310549 0 0 0 
11.1493 12.7295 28.6432 0.901182 0.302376 0.310549 0 0 0 
10.7428 13.9783 28.607 0.901181 0.302376 0.310549 0 0 0 
9.92469 14.8018 30.1793 0.901181 0.302376 0.310549 0 0 0 
10.8403 10.8404 31.5986 0.925101 0.302376 0.229688 0 0 0 
10.9431 10.7698 31.2778 0.925101 0.302376 0.229688 0 0 0 
9.87673 13.1949 32.38 0.925101 0.302376 0.229688 0 0 0 
9.89899 12.8914 32.6899 0.925101 0.302376 0.229688 0 0 0 
10.5617 10.0472 33.9931 0.941781 0.302376 0.147029 0 0 0 
10.669 9.20746 35.0331 0.941781 0.302376 0.147029 0 0 0 
8.99287 14.6201 34.6378 0.941781 0.302376 0.147028 0 0 0 
9.02526 14.9326 33.7876 0.941781 0.302376 0.147028 0 0 0 
9.93962 11.0111 36.147 0.95109 0.302376 0.0632182 0 0 0 
10.1319 10.1939 37.1634 0.95109 0.302376 0.0632182 0 0 0 
9.25542 12.8007 37.881 0.95109 0.302376 0.0632185 0 0 0 
8.77604 14.2061 38.371 0.95109 0.302376 0.0632185 0 0 0 
10.2595 9.67605 40.7701 0.952955 0.302376 -0.0210864 0 0 0 
9.95514 10.5135 39.026 0.952955 0.302376 -0.0210864 0 0 0 
9.44797 12.2094 40.4251 0.952955 0.302376 -0.0210868 0 0 0 
8.94915 13.7141 39.4592 0.952955 0.302376 -0.0210868 0 0 0 
9.35719 12.5648 41.1647 0.947363 0.302376 -0.105226 0 0 0 
9.67967 11.7375 41.6907 0.947363 0.302376 -0.105226 0 0 0 
9.07753 14.2621 43.5242 0.947363 0.302376 -0.105226 0 0 0 
8.7188 14.8158 41.8858 0.947363 0.302376 -0.105226 0 0 0 
10.8609 9.9288 45.5399 0.934356 0.302376 -0.188543 0 0 0 
10.6921 10.2844 45.274 0.934356 0.302376 -0.188543 0 0 0 
9.65847 13.377 45.1114 0.934356 0.302376 -0.188543 0 0 0 
9.33809 14.6535 45.5707 0.934356 0.302376 -0.188543 0 0 0 
9.92021 13.3908 46.4131 0.914036 0.302376 -0.270383 0 0 0 
11.0864 10.1981 46.7849 0.914036 0.302376 -0.270383 0 0 0 
9.74997 14.3157 46.8719 0.914036 0.302376 -0.270383 0 0 0 
10.177 13.9292 47.8834 0.914036 0.302376 -0.270383 0 0 0 
10.4648 14.323 49.2287 0.886563 0.302376 -0.350108 0 0 0 
11.6615 10.8152 49.2293 0.886563 0.302376 -0.350108 0 0 0 
11.031 14.1847 50.5428 0.886563 0.302376 -0.350108 0 0 0 
11.9869 12.1496 51.2059 0.886563 0.302376 -0.350108 0 0 0 
11.2563 14.4942 51.3809 0.886563 0.302376 -0.350108 0 0 0 
12.7728 9.61143 50.9852 0.852151 0.302376 -0.427092 0 0 0 
11.9879 13.0844 51.8779 0.852151 0.302376 -0.427092 0 0 0 
12.1672 14.5428 53.2682 0.852151 0.302376 -0.427092 0 0 0 
11.9547 14.3987 52.7422 0.852151 0.302376 -0.427092 0 0 0 
13.623 12.1702 54.3247 0.81107 0.302376 -0.500734 0 0 0 
13.9755 10.22 53.718 0.81107 0.302376 -0.500734 0 0 0 
14.9317 10.2883 55.308 0.811069 0.302376 -0.500735 0 0 0 
14.2191 13.0381 55.8142 0.811069 0.302376 -0.500735 0 0 0 
14.9539 11.1572 55.8313 0.763641 0.302376 -0.570457 0 0 0 
15.6782 11.4137 56.9369 0.763641 0.302376 -0.570457 0 0 0 
15.8372 12.3858 57.665 0.763641 0.302376 -0.570457 0 0 0 
14.2828 14.2936 56.5955 0.763641 0.302376 -0.570457 0 0 0 
17.4585 10.3221 58.5474 0.710235 0.302376 -0.635716 0 0 0 
17.0463 10.1508 58.0055 0.710235 0.302376 -0.635716 0 0 0 
15.527 14.8885 58.5615 0.710235 0.302376 -0.635716 0 0 0 
17.1382 12.9982 59.4625 0.710235 0.302376 -0.635716 0 0 0 
17.9477 13.3698 60.4822 0.651272 0.302376 -0.695998 0 0 0 
18.3145 10.6878 59.6602 0.651272 0.302376 -0.695998 0 0 0 
18.7125 14.3046 61.604 0.651272 0.302376 -0.695998 0 0 0 
19.7344 11.3928 61.2952 0.651272 0.302376 -0.695998 0 0 0 
20.536 11.6249 62.0503 0.587211 0.302376 -0.750834 0 0 0 
20.3663 9.56213 61.0869 0.587211 0.302376 -0.750834 0 0 0 
19.756 14.4024 62.5589 0.587211 0.302376 -0.750834 0 0 0 
21.7367 12.4035 63.3029 0.587211 0.302376 -0.750834 0 0 0 
21.8294 12.4598 63.3966 0.518554 0.302376 -0.799794 0 0 0 
23.5647 10.4294 63.754 0.518554 0.302376 -0.799794 0 0 0 
22.3125 13.6592 64.1633 0.518554 0.302376 -0.799794 0 0 0 
23.4729 13.0596 64.6889 0.518554 0.302376 -0.799794 0 0 0 
25.0449 10.5525 64.6759 0.445839 0.302376 -0.842494 0 0 0 
26.1298 9.46977 64.8614 0.445839 0.302376 -0.842494 0 0 0 
24.7414 13.5358 65.586 0.445839 0.302376 -0.842494 0 0 0 
25.1953 14.7012 66.2445 0.445839 0.302376 -0.842494 0 0 0 
27.5211 9.77888 65.6223 0.369634 0.302376 -0.878601 0 0 0 
26.5712 13.3151 66.4397 0.369634 0.302376 -0.878601 0 0 0 
28.4329 13.4138 67.2569 0.369634 0.302376 -0.878601 0 0 0 
27.5342 12.3135 66.5001 0.369634 0.302376 -0.878601 0 0 0 
29.3317 12.9085 67.4017 0.290538 0.302376 -0.907831 0 0 0 
29.762 11.346 67.019 0.290538 0.302376 -0.907831 0 0 0 
29.2719 14.027 67.7551 0.290538 0.302376 -0.907831 0 0 0 
29.9603 14.4176 68.1055 0.290538 0.302376 -0.907831 0 0 0 
32.2139 9.93447 67.2669 0.209166 0.302376 -0.929956 0 0 0 
33.0028 9.44573 67.2854 0.209166 0.302376 -0.929956 0 0 0 
33.7995 13.7576 68.8666 0.209166 0.302376 -0.929956 0 0 0 
33.1343 14.2672 68.8827 0.209166 0.302376 -0.929956 0 0 0 
34.7253 11.7851 68.3592 0.126158 0.302376 -0.944803 0 0 0 
33.7931 14.7735 69.1911 0.126158 0.302376 -0.944803 0 0 0 
34.9177 13.4986 68.9333 0.126158 0.302376 -0.944803 0 0 0 
35.467 14.3004 69.2632 0.126158 0.302376 -0.944803 0 0 0 
36.668 10.5397 68.2088 0.0421631 0.302376 -0.952256 0 0 0 
37.6835 11.8971 68.6848 0.0421631 0.302376 -0.952256 0 0 0 
37.8889 13.3885 69.1674 0.0421625 0.302376 -0.952256 0 0 0 
39.0254 12.5456 68.9501 0.0421625 0.302376 -0.952256 0 0 0 
37.4701 14.1564 69.3927 0.0421625 0.302376 -0.952256 0 0 0 
39.6303 12.3805 68.8795 -0.0421631 0.302376 -0.952256 0 0 0 
39.3209 12.3976 68.8986 -0.0421631 0.302376 -0.952256 0 0 0 
39.8517 14.7533 69.6231 -0.0421625 0.302376 -0.952256 0 0 0 
40.3078 12.5793 68.9126 -0.0421625 0.302376 -0.952256 0 0 0 
42.9734 16.4175 69.8483 -0.127696 0.26295 -0.956322 0 0 0 
43.5054 17.0865 69.9612 -0.127696 0.26295 -0.956322 0 0 0 
43.6644 16.9932 69.9143 -0.127696 0.26295 -0.956322 0 0 0 
44.0083 18.7903 70.3625 -0.127696 0.26295 -0.956322 0 0 0 
46.4444 16.4305 69.218 -0.211717 0.26295 -0.941294 0 0 0 
44.9455 15.5605 69.3121 -0.211717 0.26295 -0.941294 0 0 0 
47.0859 19.5814 69.9539 -0.211717 0.26295 -0.941294 0 0 0 
47.1055 19.4808 69.9215 -0.211717 0.26295 -0.941294 0 0 0 
48.3225 16.5932 68.7407 -0.29408 0.26295 -0.918899 0 0 0 
47.3028 16.7361 69.1079 -0.29408 0.26295 -0.918899 0 0 0 
49.9502 19.3972 69.0222 -0.294079 0.26295 -0.918899 0 0 0 
49.2096 17.0227 68.5797 -0.294079 0.26295 -0.918899 0 0 0 
48.6841 19.7165 69.5188 -0.294079 0.26295 -0.918899 0 0 0 
50.9357 15.1552 67.3733 -0.374141 0.26295 -0.889312 0 0 0 
50.0779 18.2058 68.6362 -0.374141 0.26295 -0.889312 0 0 0 
52.7313 19.9021 68.0214 -0.374141 0.26295 -0.889312 0 0 0 
52.092 17.5999 67.6097 -0.374141 0.26295 -0.889312 0 0 0 
53.7989 15.3342 66.0555 -0.451275 0.26295 -0.852765 0 0 0 
53.7451 16.2338 66.3614 -0.451275 0.26295 -0.852765 0 0 0 
54.3035 19.806 67.1674 -0.451275 0.26295 -0.852765 0 0 0 
54.5861 20.4326 67.211 -0.451275 0.26295 -0.852765 0 0 0 
55.4238 16.5723 65.5077 -0.524876 0.26295 -0.809545 0 0 0 
55.2637 16.6296 65.6302 -0.524876 0.26295 -0.809545 0 0 0 
56.2885 20.2451 66.1401 -0.524876 0.26295 -0.809545 0 0 0 
57.2303 20.2701 65.5376 -0.524876 0.26295 -0.809545 0 0 0 
57.1739 18.6485 65.0474 -0.524876 0.26295 -0.809545 0 0 0 
57.3049 17.1111 64.4529 -0.59437 0.26295 -0.759988 0 0 0 
57.568 18.0995 64.5891 -0.59437 0.26295 -0.759988 0 0 0 
59.6716 19.7951 63.5306 -0.59437 0.26295 -0.759988 0 0 0 
58.7956 17.4653 63.4096 -0.59437 0.26295 -0.759988 0 0 0 
59.8756 19.5929 63.2959 -0.659212 0.26295 -0.704484 0 0 0 
59.8855 15.6531 61.8161 -0.659212 0.26295 -0.704484 0 0 0 
60.9187 17.0258 61.3617 -0.659212 0.26295 -0.704484 0 0 0 
61.9632 20.6007 61.7186 -0.659212 0.26295 -0.704484 0 0 0 
62.424 18.0291 60.1771 -0.718894 0.26295 -0.643466 0 0 0 
62.5174 15.2086 58.9202 -0.718894 0.26295 -0.643466 0 0 0 
63.1105 19.5657 60.0381 -0.718895 0.26295 -0.643466 0 0 0 
62.9897 19.0325 59.9552 -0.718895 0.26295 -0.643466 0 0 0 
63.9766 17.3979 58.0385 -0.772951 0.26295 -0.577411 0 0 0 
63.5749 16.703 58.2597 -0.772951 0.26295 -0.577411 0 0 0 
64.3443 15.9353 56.8801 -0.772951 0.26295 -0.577411 0 0 0 
64.4321 20.2154 58.7118 -0.772951 0.26295 -0.577412 0 0 0 
64.5668 19.9778 58.4232 -0.772951 0.26295 -0.577412 0 0 0 
65.8085 16.016 54.634 -0.820958 0.26295 -0.506839 0 0 0 
65.1378 14.9502 55.1675 -0.820958 0.26295 -0.506839 0 0 0 
66.3199 17.0914 54.3636 -0.820958 0.26295 -0.506838 0 0 0 
66.053 20.1624 56.3891 -0.820958 0.26295 -0.506838 0 0 0 
66.9567 17.0646 53.0886 -0.86254 0.26295 -0.432299 0 0 0 
66.9465 18.0769 53.7248 -0.86254 0.26295 -0.432299 0 0 0 
67.3555 16.3846 51.8792 -0.86254 0.26295 -0.432299 0 0 0 
67.3106 17.2515 52.4962 -0.86254 0.26295 -0.432299 0 0 0 
67.5864 16.4234 51.3536 -0.897371 0.26295 -0.354376 0 0 0 
67.9282 15.7227 49.9679 -0.897371 0.26295 -0.354376 0 0 0 
67.3247 15.259 51.1522 -0.897371 0.26295 -0.354376 0 0 0 
68.7745 18.6101 49.9674 -0.897371 0.26295 -0.354376 0 0 0 
68.5225 18.9441 50.8532 -0.897371 0.26295 -0.354376 0 0 0 
68.5449 16.0796 48.4971 -0.925179 0.26295 -0.273679 0 0 0 
68.9651 18.3547 49.2626 -0.925179 0.26295 -0.273679 0 0 0 
70.2419 20.6371 47.1393 -0.925179 0.26295 -0.27368 0 0 0 
69.8706 20.7276 48.4812 -0.925179 0.26295 -0.27368 0 0 0 
69.293 15.6333 45.0733 -0.945747 0.26295 -0.190841 0 0 0 
69.2307 15.4598 45.1429 -0.945747 0.26295 -0.190841 0 0 0 
70.6676 19.9053 44.1472 -0.945747 0.26295 -0.19084 0 0 0 
70.3182 20.2547 46.3603 -0.945747 0.26295 -0.19084 0 0 0 
69.8731 16.3213 42.5314 -0.958913 0.26295 -0.106509 0 0 0 
70.6397 19.6978 43.9649 -0.958913 0.26295 -0.106509 0 0 0 
70.5762 18.7312 42.151 -0.958912 0.26295 -0.10651 0 0 0 
71.1056 20.7817 42.4468 -0.958912 0.26295 -0.10651 0 0 0 
71.0809 20.6698 42.3928 -0.958912 0.26295 -0.10651 0 0 0 
69.9973 16.106 39.7107 -0.964573 0.26295 -0.0213439 0 0 0 
70.4607 17.8753 40.5643 -0.964573 0.26295 -0.0213439 0 0 0 
71.0075 19.7838 39.3686 -0.964574 0.26295 -0.0213433 0 0 0 
71.2612 20.7676 40.0236 -0.964574 0.26295 -0.0213433 0 0 0 
70.2423 17.2256 37.1002 -0.962685 0.26295 0.0639892 0 0 0 
71.0199 19.8386 38.061 -0.962685 0.26295 0.0639892 0 0 0 
70.0261 16.7655 35.7377 -0.962685 0.26295 0.0639883 0 0 0 
70.2922 17.5523 36.5081 -0.962685 0.26295 0.0639883 0 0 0 
70.6143 19.2314 35.1213 -0.953263 0.26295 0.148821 0 0 0 
70.1077 17.3243 35.2459 -0.953263 0.26295 0.148821 0 0 0 
70.5959 20.1774 33.3317 -0.953263 0.26295 0.148821 0 0 0 
69.5672 16.6438 32.9863 -0.953263 0.26295 0.148821 0 0 0 
69.9032 17.654 33.3539 -0.953263 0.26295 0.148821 0 0 0 
69.247 16.9109 31.3921 -0.93638 0.26295 0.232488 0 0 0 
69.4872 17.3539 31.8585 -0.93638 0.26295 0.232488 0 0 0 
69.7568 18.7317 31.3858 -0.93638 0.26295 0.232488 0 0 0 
69.5795 18.1986 31.2745 -0.93638 0.26295 0.232488 0 0 0 
69.741 20.1479 29.8102 -0.912168 0.26295 0.314335 0 0 0 
68.1902 16.0763 28.7159 -0.912168 0.26295 0.314335 0 0 0 
67.8574 15.8274 27.9586 -0.912168 0.26295 0.314336 0 0 0 
68.0087 16.1791 28.1032 -0.912168 0.26295 0.314336 0 0 0 
67.7163 16.7168 27.0118 -0.880818 0.26295 0.393723 0 0 0 
68.32 18.6733 27.0558 -0.880818 0.26295 0.393723 0 0 0 
67.3748 18.44 25.0969 -0.880818 0.26295 0.393723 0 0 0 
68.4627 20.2616 26.3142 -0.880818 0.26295 0.393723 0 0 0 
68.6757 20.1243 26.8823 -0.880818 0.26295 0.393723 0 0 0 
67.0714 17.8792 24.845 -0.842573 0.26295 0.470029 0 0 0 
65.7558 15.2962 23.9317 -0.842573 0.26295 0.470029 0 0 0 
67.8081 20.7113 24.5812 -0.842574 0.26295 0.470029 0 0 0 
66.2663 18.5191 23.0439 -0.842574 0.26295 0.470029 0 0 0 
65.8518 18.5822 22.3129 -0.797735 0.26295 0.542656 0 0 0 
66.461 20.6691 22.1973 -0.797735 0.26295 0.542656 0 0 0 
64.8602 17.9808 21.1467 -0.797735 0.26295 0.542657 0 0 0 
65.3513 19.055 21.3481 -0.797735 0.26295 0.542657 0 0 0 
63.4286 15.5963 20.2834 -0.746654 0.26295 0.611037 0 0 0 
62.6592 16.1055 19.1242 -0.746654 0.26295 0.611037 0 0 0 
63.6096 18.5488 19.2341 -0.746653 0.26295 0.611037 0 0 0 
63.0699 18.2274 18.7129 -0.746653 0.26295 0.611037 0 0 0 
62.752 18.7291 18.1086 -0.746653 0.26295 0.611037 0 0 0 
61.6829 15.8287 18.1331 -0.689728 0.26295 0.674635 0 0 0 
62.5722 18.803 17.8832 -0.689728 0.26295 0.674635 0 0 0 
60.7877 17.9044 16.4089 -0.689728 0.26295 0.674635 0 0 0 
61.6583 18.8874 16.9159 -0.689728 0.26295 0.674635 0 0 0 
59.9565 17.3987 15.8439 -0.627405 0.26295 0.732954 0 0 0 
60.3797 17.7254 16.0889 -0.627405 0.26295 0.732954 0 0 0 
59.0075 18.8595 14.5074 -0.627405 0.26295 0.732953 0 0 0 
60.2683 20.0756 15.1504 -0.627405 0.26295 0.732953 0 0 0 
57.1765 15.6125 14.2344 -0.560171 0.26295 0.785535 0 0 0 
56.5916 15.47 13.865 -0.560171 0.26295 0.785535 0 0 0 
56.7116 20.246 12.3519 -0.560171 0.26295 0.785535 0 0 0 
56.3233 16.1386 13.4499 -0.560171 0.26295 0.785535 0 0 0 
54.7932 16.0369 12.5357 -0.488554 0.26295 0.831969 0 0 0 
54.5251 16.6003 12.2001 -0.488554 0.26295 0.831969 0 0 0 
54.891 16.7974 12.3527 -0.488554 0.26295 0.831969 0 0 0 
55.0291 18.2247 11.9827 -0.488554 0.26295 0.831969 0 0 0 
53.7416 15.5106 12.0845 -0.488554 0.26295 0.831969 0 0 0 
53.4204 17.806 11.2131 -0.413112 0.26295 0.871892 0 0 0 
52.5558 16.8901 11.0797 -0.413112 0.26295 0.871892 0 0 0 
51.9813 18.4255 10.3444 -0.413112 0.26295 0.871892 0 0 0 
52.3945 20.0873 10.039 -0.413112 0.26295 0.871892 0 0 0 
49.5021 16.3704 9.96003 -0.334438 0.26295 0.904991 0 0 0 
51.0682 16.4762 10.508 -0.334438 0.26295 0.904991 0 0 0 
49.5023 18.1045 9.45625 -0.334438 0.26295 0.904991 0 0 0 
50.6059 18.964 9.61434 -0.334438 0.26295 0.904991 0 0 0 
46.4996 15.5429 9.28597 -0.253145 0.26295 0.931007 0 0 0 
48.0331 16.427 9.45322 -0.253145 0.26295 0.931007 0 0 0 
47.6255 15.8808 9.49666 -0.253145 0.26295 0.931007 0 0 0 
46.0581 18.4567 8.34295 -0.253146 0.26295 0.931007 0 0 0 
46.119 17.1836 8.71909 -0.253146 0.26295 0.931007 0 0 0 
45.1171 17.6095 8.4081 -0.169873 0.26295 0.949737 0 0 0 
43.8405 15.2196 8.84144 -0.169873 0.26295 0.949737 0 0 0 
43.3311 17.1388 8.21897 -0.169872 0.26295 0.949737 0 0 0 
43.8365 19.9626 7.52755 -0.169872 0.26295 0.949737 0 0 0 
42.6396 18.1065 7.88561 -0.08527 0.26295 0.961034 0 0 0 
41.9951 15.2721 8.60395 -0.08527 0.26295 0.961034 0 0 0 
40.5194 16.313 8.1882 -0.0852698 0.26295 0.961034 0 0 0 
41.0265 17.7572 7.83804 -0.0852698 0.26295 0.961034 0 0 0 
39.6354 15.0658 8.52571 0 0.26295 0.96481 0 0 0 
39.6827 16.6432 8.09581 0 0.26295 0.96481 0 0 0 
37.9316 17.6015 7.83464 0 0.26295 0.96481 0 0 0 
40.4229 20.7174 6.98542 0 0.26295 0.96481 0 0 0 
38.534 19.6174 7.28523 0 0.26295 0.96481 0 0 0 
37.4066 19.9916 7.21 0.08527 0.26295 0.961034 0 0 0 
36.954 16.9802 8.0741 0.08527 0.26295 0.961034 0 0 0 
36.4014 19.5125 7.43029 0.0852698 0.26295 0.961034 0 0 0 
36.0017 18.7156 7.68379 0.0852698 0.26295 0.961034 0 0 0 
34.7431 14.9616 8.85231 0.169873 0.26295 0.949737 0 0 0 
34.2176 18.5457 7.95397 0.169873 0.26295 0.949737 0 0 0 
34.288 19.6737 7.62907 0.169872 0.26295 0.949737 0 0 0 
