ply
format ascii 1.0
comment Generated by the CGAL library
element vertex 675
property double x
property double y
property double z
property double nx
property double ny
property double nz
property uchar red
property uchar green
property uchar blue
end_header
0.00367832 0.00156406 -0.0128685 0.926049 0.374163 -7.97221e-17 0 0 0 
0.0036735 0.00157661 -0.0129628 0.926049 0.374163 -7.97221e-17 0 0 0 
0.00369331 0.00152501 -0.0131484 0.938553 0.34159 -8.89048e-18 0 0 0 
0.00375226 0.00137145 -0.0129313 0.938553 0.34159 -8.89048e-18 161 151 72 
0.00376586 0.00133601 -0.0125697 0.938553 0.34159 -8.89048e-18 161 151 72 
0.00378536 0.00128522 -0.0124014 0.938553 0.34159 -8.89048e-18 161 151 72 
0.00378409 0.00128853 -0.0127435 0.926049 0.374163 -7.97221e-17 0 0 0 
0.00368655 0.00154262 -0.0127516 0.926049 0.374163 -7.97221e-17 0 0 0 
0.00389918 0.000881702 -0.0124972 0.969117 0.241613 -8.89048e-18 0 0 0 
0.00388171 0.000946883 -0.0126777 0.969117 0.241613 -8.89048e-18 161 151 72 
0.00386092 0.00102447 -0.0124138 0.960087 0.275315 -8.89048e-18 161 151 72 
0.00386511 0.00100883 -0.0139591 0.960087 0.275315 5.6201e-17 0 0 0 
0.00382404 0.00116212 -0.0137895 0.960087 0.275315 5.6201e-17 0 0 0 
0.0039097 0.000842427 -0.013919 0.969117 0.241613 1.80844e-17 0 0 0 
0.00384928 0.00106791 -0.0136538 0.969117 0.241613 1.80844e-17 0 0 0 
0.00367502 0.00157266 -0.0138445 0.926049 0.374163 1.24049e-16 0 0 0 
0.00370482 0.00149504 -0.0138368 0.926049 0.374163 1.24049e-16 161 151 72 
0.00378266 0.00129224 -0.0138188 0.938553 0.34159 9.13338e-17 161 151 72 
0.00376952 0.00132647 -0.0139093 0.938553 0.34159 9.13338e-17 161 151 72 
0.00374773 0.00138324 -0.0132968 0.938553 0.34159 1.80844e-17 161 151 72 
0.00378653 0.00128216 -0.0133829 0.938553 0.34159 1.80844e-17 161 151 72 
0.00370394 0.00149731 -0.0135818 0.926049 0.374163 8.8916e-17 161 151 72 
0.00372889 0.00143232 -0.0134635 0.926049 0.374163 8.8916e-17 161 151 72 
0.00386396 0.00101315 -0.0134075 0.969117 0.241613 1.80844e-17 161 151 72 
0.00390732 0.000851305 -0.0135801 0.969117 0.241613 1.80844e-17 0 0 0 
0.00389073 0.000913236 -0.0132358 0.960087 0.275315 1.80844e-17 0 0 0 
0.00380856 0.00121989 -0.0132931 0.960087 0.275315 1.80844e-17 0 0 0 
0.00348242 0.00196404 -0.000476943 0.881865 0.468912 0 0 0 0 
0.00357126 0.00178969 -0.000717439 0.881865 0.468912 0 161 151 72 
0.00356112 0.0018096 -0.00042642 0.897705 0.437824 0 0 0 0 
0.00324827 0.00233235 -0.000460556 0.82802 0.558523 0 0 0 0 
0.0032644 0.00230751 -0.000699234 0.82802 0.558523 0 0 0 0 
0.00333718 0.00219544 -0.00064583 0.847023 0.529262 0 0 0 0 
0.00337181 0.00214211 -0.000591972 0.847023 0.529262 0 85 136 165 
0.00340625 0.00208908 -0.00012026 0.847023 0.529262 0 161 151 72 
0.00337731 0.00213365 -7.4999e-05 0.847023 0.529262 0 161 151 72 
0.00328783 0.00227144 -0.000201108 0.82802 0.558523 0 85 136 165 
0.00337903 0.002131 -0.000263744 0.82802 0.558523 0 0 0 0 
0.00361597 0.00170194 -0.000319041 0.897705 0.437824 0 161 151 72 
0.00364331 0.00164828 -0.00024439 0.897705 0.437824 0 0 0 0 
0.00351669 0.00189679 -0.000287919 0.881865 0.468912 0 161 151 72 
0.00361631 0.00170127 -6.19214e-05 0.881865 0.468912 0 0 0 0 
0.00349294 0.0019434 -0.00145416 0.881865 0.468912 0 0 0 0 
0.00356666 0.00179872 -0.00148793 0.881865 0.468912 0 161 151 72 
0.00357293 0.00178641 -0.00146119 0.897705 0.437824 0 0 0 0 
0.00365259 0.00163007 -0.00142839 0.897705 0.437824 0 0 0 0 
0.0033353 0.00219833 -0.00140599 0.82802 0.558523 0 161 151 72 
0.0033074 0.0022413 -0.0014861 0.82802 0.558523 0 161 151 72 
0.00342951 0.00205327 -0.00145588 0.847023 0.529262 0 161 151 72 
0.00341219 0.00207994 -0.00148606 0.847023 0.529262 0 161 151 72 
0.00340056 0.00209784 -0.000976289 0.847023 0.529262 0 161 151 72 
0.00332293 0.00221738 -0.00106232 0.82802 0.558523 0 161 151 72 
0.00339489 0.00210657 -0.00112772 0.82802 0.558523 0 0 0 0 
0.00354751 0.00183631 -0.00112479 0.897705 0.437824 0 0 0 0 
0.003611 0.00171169 -0.000971783 0.897705 0.437824 0 161 151 72 
0.00347359 0.00198138 -0.000881703 0.881865 0.468912 0 0 0 0 
0.00349653 0.00193635 -0.00105798 0.881865 0.468912 0 0 0 0 
0.00357893 0.00177464 -0.00238145 0.881865 0.468912 0 0 0 0 
0.00350763 0.00191457 -0.00223997 0.881865 0.468912 0 85 136 165 
0.00365349 0.00162831 -0.00211934 0.897705 0.437824 0 0 0 0 
0.00358989 0.00175312 -0.00222833 0.897705 0.437824 0 161 151 72 
0.00333509 0.00219866 -0.00225852 0.82802 0.558523 0 161 151 72 
0.00337982 0.00212979 -0.00207433 0.82802 0.558523 0 0 0 0 
0.00341088 0.00208196 -0.00241392 0.847023 0.529262 0 161 151 72 
0.00342367 0.00206226 -0.00232246 0.847023 0.529262 0 161 151 72 
0.00344772 0.00202523 -0.00187452 0.847023 0.529262 0 161 151 72 
0.0033993 0.00209979 -0.00177282 0.847023 0.529262 0 161 151 72 
0.00331309 0.00223254 -0.00179583 0.82802 0.558523 0 161 151 72 
0.00328265 0.00227941 -0.00175668 0.82802 0.558523 0 0 0 0 
0.0036514 0.0016324 -0.00172947 0.897705 0.437824 0 0 0 0 
0.00356125 0.00180933 -0.0019509 0.897705 0.437824 0 0 0 0 
0.00355955 0.00181267 -0.00181096 0.881865 0.468912 0 161 151 72 
0.00350734 0.00191515 -0.00299593 0.881865 0.468912 0 85 136 165 
0.00347099 0.00198647 -0.00310259 0.881865 0.468912 0 0 0 0 
0.00365379 0.00162772 -0.00298865 0.897705 0.437824 0 0 0 0 
0.00364202 0.00165081 -0.00289719 0.897705 0.437824 0 0 0 0 
0.00331026 0.00223689 -0.00307074 0.82802 0.558523 0 161 151 72 
0.0032457 0.0023363 -0.00291753 0.82802 0.558523 0 0 0 0 
0.00340914 0.00208464 -0.00323662 0.847023 0.529262 0 161 151 72 
0.00343665 0.00204227 -0.00310455 0.847023 0.529262 0 161 151 72 
0.00341804 0.00207093 -0.00257317 0.847023 0.529262 0 161 151 72 
0.0033691 0.00214628 -0.00254397 0.847023 0.529262 0 85 136 165 
0.00330757 0.00224104 -0.00265013 0.82802 0.558523 0 161 151 72 
0.00339867 0.00210075 -0.00287584 0.82802 0.558523 0 0 0 0 
0.00362613 0.001682 -0.00284242 0.897705 0.437824 0 161 151 72 
0.00358857 0.00175572 -0.0027245 0.897705 0.437824 0 161 151 72 
0.00349379 0.00194174 -0.00253404 0.881865 0.468912 0 0 0 0 
0.00346967 0.00198908 -0.00287003 0.881865 0.468912 0 0 0 0 
0.0035495 0.0018324 -0.00406464 0.881865 0.468912 0 161 151 72 
0.00346471 0.0019988 -0.00381278 0.881865 0.468912 0 0 0 0 
0.00352315 0.0018841 -0.0037152 0.897705 0.437824 0 0 0 0 
0.00354888 0.00183362 -0.00383204 0.897705 0.437824 0 0 0 0 
0.00338226 0.00212603 -0.0037865 0.82802 0.558523 0 0 0 0 
0.00337893 0.00213115 -0.00390592 0.847023 0.529262 0 161 151 72 
0.00334119 0.00218926 -0.00400818 0.847023 0.529262 0 0 0 0 
0.00335457 0.00216866 -0.00344818 0.847023 0.529262 0 0 0 0 
0.00339639 0.00210427 -0.00345355 0.847023 0.529262 0 161 151 72 
0.00336979 0.00214523 -0.00354413 0.82802 0.558523 0 161 151 72 
0.00329326 0.00226307 -0.00366632 0.82802 0.558523 0 85 136 165 
0.00359488 0.00174332 -0.00347185 0.897705 0.437824 0 161 151 72 
0.00363091 0.00167263 -0.00370509 0.897705 0.437824 0 161 151 72 
0.00360363 0.00172617 -0.00333816 0.881865 0.468912 0 0 0 0 
0.00360977 0.00171412 -0.00331934 0.881865 0.468912 0 0 0 0 
0.00353536 0.00186014 -0.00482779 0.881865 0.468912 0 161 151 72 
0.00348751 0.00195406 -0.00467078 0.881865 0.468912 0 0 0 0 
0.00362309 0.00168797 -0.00467754 0.897705 0.437824 0 161 151 72 
0.00354506 0.00184111 -0.00462252 0.897705 0.437824 0 0 0 0 
0.0032968 0.00225763 -0.00453058 0.82802 0.558523 0 85 136 165 
0.00329092 0.00226668 -0.00480975 0.82802 0.558523 0 85 136 165 
0.00329905 0.00225416 -0.00486298 0.847023 0.529262 0 0 0 0 
0.00345882 0.00200814 -0.00466479 0.847023 0.529262 0 0 0 0 
0.00335871 0.00216229 -0.00421955 0.847023 0.529262 0 0 0 0 
0.00337327 0.00213986 -0.00440404 0.82802 0.558523 0 161 151 72 
0.00339151 0.00211179 -0.00441049 0.82802 0.558523 0 0 0 0 
0.00350058 0.0019284 -0.00450571 0.897705 0.437824 0 0 0 0 
0.00360861 0.00171638 -0.00426719 0.897705 0.437824 0 161 151 72 
0.00361593 0.00170202 -0.00413195 0.881865 0.468912 0 0 0 0 
0.00348999 0.0019492 -0.00419794 0.881865 0.468912 0 0 0 0 
0.00359421 0.00174465 -0.00567214 0.881865 0.468912 0 0 0 0 
0.00349692 0.00193559 -0.00563995 0.881865 0.468912 0 0 0 0 
0.003636 0.00166264 -0.00560214 0.897705 0.437824 0 161 151 72 
0.00360088 0.00173156 -0.00544229 0.897705 0.437824 0 161 151 72 
0.00338038 0.00212892 -0.00548041 0.82802 0.558523 0 0 0 0 
0.00329809 0.00225563 -0.00556047 0.82802 0.558523 0 85 136 165 
0.00345344 0.00201642 -0.00572077 0.847023 0.529262 0 0 0 0 
0.00338398 0.00212338 -0.00552185 0.847023 0.529262 0 161 151 72 
0.00335165 0.00217316 -0.00506752 0.847023 0.529262 0 0 0 0 
0.00346069 0.00200525 -0.00530607 0.847023 0.529262 0 0 0 0 
0.00330778 0.00224072 -0.00533195 0.82802 0.558523 0 161 151 72 
0.0032869 0.00227287 -0.00531413 0.82802 0.558523 0 85 136 165 
0.00358784 0.00175715 -0.00509777 0.897705 0.437824 0 161 151 72 
0.00357092 0.00179036 -0.00522424 0.897705 0.437824 0 0 0 0 
0.00346584 0.00199659 -0.00519452 0.881865 0.468912 0 0 0 0 
0.00347736 0.00197398 -0.00654539 0.881865 0.468912 0 0 0 0 
0.00352305 0.0018843 -0.00646019 0.881865 0.468912 0 161 151 72 
0.00350138 0.00192683 -0.00625041 0.897705 0.437824 0 0 0 0 
0.00357288 0.00178651 -0.00641118 0.897705 0.437824 0 0 0 0 
0.00335376 0.00216992 -0.00628893 0.82802 0.558523 0 161 151 72 
0.00327126 0.00229695 -0.00628477 0.82802 0.558523 0 0 0 0 
0.00341242 0.00207958 -0.00628334 0.847023 0.529262 0 161 151 72 
0.00329411 0.00226177 -0.00648365 0.847023 0.529262 0 0 0 0 
0.00330007 0.00225259 -0.00585511 0.847023 0.529262 0 0 0 0 
0.00336928 0.00214601 -0.00594837 0.847023 0.529262 0 85 136 165 
0.00344629 0.00202743 -0.00616912 0.82802 0.558523 0 0 0 0 
0.00329985 0.00225293 -0.00604448 0.82802 0.558523 0 85 136 165 
0.00364116 0.00165251 -0.00611876 0.897705 0.437824 0 0 0 0 
0.00357989 0.00177275 -0.00597332 0.897705 0.437824 0 161 151 72 
0.00354675 0.0018378 -0.00587596 0.881865 0.468912 0 161 151 72 
0.00348224 0.00196441 -0.00598478 0.881865 0.468912 0 0 0 0 
0.00351405 0.00190198 -0.00727885 0.881865 0.468912 0 0 0 0 
0.0034869 0.00195525 -0.00712826 0.881865 0.468912 0 0 0 0 
0.00363475 0.00166508 -0.00719524 0.897705 0.437824 0 161 151 72 
0.00362411 0.00168597 -0.00706853 0.897705 0.437824 0 161 151 72 
0.00324146 0.00234284 -0.00712715 0.82802 0.558523 0 0 0 0 
0.00345906 0.00200776 -0.00732588 0.847023 0.529262 0 0 0 0 
0.00346098 0.00200481 -0.00702796 0.847023 0.529262 0 0 0 0 
0.00328728 0.00227228 -0.00659904 0.847023 0.529262 0 0 0 0 
0.00340885 0.00208508 -0.00686674 0.847023 0.529262 0 161 151 72 
0.00339526 0.00210601 -0.00696819 0.82802 0.558523 0 0 0 0 
0.00332206 0.00221873 -0.0068618 0.82802 0.558523 0 161 151 72 
0.00349768 0.00193409 -0.00696146 0.897705 0.437824 0 0 0 0 
0.00353509 0.00186068 -0.00689446 0.897705 0.437824 0 0 0 0 
0.00352577 0.00187897 -0.00673698 0.881865 0.468912 0 161 151 72 
0.00356805 0.00179599 -0.00667533 0.881865 0.468912 0 161 151 72 
0.00361739 0.00169914 -0.00816511 0.881865 0.468912 -1.80922e-17 0 0 0 
0.00347895 0.00197085 -0.00802316 0.881865 0.468912 -1.80922e-17 0 0 0 
0.00352981 0.00187105 -0.00789014 0.897705 0.437824 -1.9584e-17 0 0 0 
0.0036536 0.00162808 -0.00784691 0.897705 0.437824 -1.9584e-17 0 0 0 
0.00332129 0.00221991 -0.00790651 0.82802 0.558523 -2.01761e-18 161 151 72 
0.00332838 0.00220899 -0.00806467 0.82802 0.558523 -2.01761e-18 161 151 72 
0.00345984 0.00200656 -0.00805787 0.847023 0.529262 -5.25735e-19 0 0 0 
0.00335323 0.00217072 -0.00804965 0.847023 0.529262 -5.25735e-19 0 0 0 
0.00344223 0.00203368 -0.00765216 0.847023 0.529262 -2.01761e-18 161 151 72 
0.00341877 0.0020698 -0.00763845 0.847023 0.529262 -2.01761e-18 161 151 72 
0.00327108 0.00229722 -0.00778636 0.82802 0.558523 -2.01761e-18 0 0 0 
0.00362115 0.00169177 -0.00751216 0.897705 0.437824 -2.01761e-18 161 151 72 
0.00354511 0.00184101 -0.00772328 0.897705 0.437824 -2.01761e-18 0 0 0 
0.00348225 0.00196438 -0.00776867 0.881865 0.468912 -2.01761e-18 0 0 0 
0.00353572 0.00185945 -0.00742349 0.881865 0.468912 -2.01761e-18 161 151 72 
0.00352386 0.00188272 -0.00903045 0.881865 0.468912 -9.16343e-17 161 151 72 
0.00363654 0.00166156 -0.00902354 0.881865 0.468912 -9.16343e-17 0 0 0 
0.0035295 0.00187165 -0.0087875 0.897705 0.437824 -1.44007e-16 0 0 0 
0.00363713 0.0016604 -0.00895681 0.897705 0.437824 -1.44007e-16 161 151 72 
0.00343881 0.00203895 -0.00868774 0.82802 0.558523 -1.99105e-17 0 0 0 
0.00329604 0.00225879 -0.00890763 0.82802 0.558523 -1.99105e-17 85 136 165 
0.00335073 0.00217457 -0.00889121 0.847023 0.529262 -3.83691e-17 0 0 0 
0.0032561 0.00232029 -0.00905536 0.847023 0.529262 -3.83691e-17 0 0 0 
0.00342243 0.00206417 -0.00848125 0.847023 0.529262 -1.84187e-17 161 151 72 
0.00345878 0.00200819 -0.00848236 0.847023 0.529262 -1.84187e-17 0 0 0 
0.00324425 0.00233854 -0.00864533 0.82802 0.558523 -1.99105e-17 0 0 0 
0.00328958 0.00226873 -0.00843215 0.82802 0.558523 -1.99105e-17 85 136 165 
0.00360752 0.00171853 -0.0085387 0.897705 0.437824 -1.08309e-16 161 151 72 
0.00364856 0.00163797 -0.00860319 0.897705 0.437824 -1.08309e-16 0 0 0 
0.0034807 0.00196742 -0.00832266 0.881865 0.468912 -3.59851e-17 0 0 0 
0.00351819 0.00189384 -0.00985284 0.881865 0.468912 7.17237e-17 161 151 72 
0.00360856 0.00171648 -0.00985584 0.881865 0.468912 7.17237e-17 0 0 0 
0.0036114 0.00171091 -0.0095991 0.897705 0.437824 5.32652e-17 161 151 72 
0.00364904 0.00163705 -0.00947747 0.897705 0.437824 5.32652e-17 0 0 0 
0.00336505 0.00215253 -0.00954748 0.82802 0.558523 0 161 151 72 
0.00334737 0.00217975 -0.00959195 0.82802 0.558523 0 161 151 72 
0.00339254 0.00211019 -0.00987129 0.847023 0.529262 1.84586e-17 161 151 72 
0.00342757 0.00205625 -0.00985385 0.847023 0.529262 1.84586e-17 161 151 72 
0.00332127 0.00221995 -0.00914287 0.847023 0.529262 -1.84586e-17 0 0 0 
0.00340506 0.00209092 -0.00932851 0.847023 0.529262 -1.84586e-17 161 151 72 
0.00335803 0.00216334 -0.00930638 0.82802 0.558523 0 161 151 72 
0.00331341 0.00223204 -0.00923389 0.82802 0.558523 0 161 151 72 
0.0036063 0.00172092 -0.00935706 0.897705 0.437824 -5.32652e-17 161 151 72 
0.00357283 0.00178662 -0.00939787 0.897705 0.437824 -5.32652e-17 0 0 0 
0.00356465 0.00180267 -0.00908086 0.881865 0.468912 -7.17237e-17 161 151 72 
0.00358699 0.00175882 -0.00914008 0.881865 0.468912 -7.17237e-17 0 0 0 
0.00362536 0.00168351 -0.0106457 0.881865 0.468912 1.78929e-17 0 0 0 
0.00346602 0.00199624 -0.0107045 0.881865 0.468912 1.78929e-17 0 0 0 
0.00365077 0.00163364 -0.0102969 0.897705 0.437824 8.87245e-17 0 0 0 
0.00361208 0.00170957 -0.0102995 0.897705 0.437824 8.87245e-17 161 151 72 
0.00336974 0.00214531 -0.0104302 0.82802 0.558523 1.78929e-17 161 151 72 
0.00331595 0.00222813 -0.0107055 0.847023 0.529262 1.78929e-17 0 0 0 
0.00343745 0.00204105 -0.010413 0.847023 0.529262 1.78929e-17 161 151 72 
0.00346095 0.00200485 -0.0102801 0.847023 0.529262 3.63515e-17 0 0 0 
0.00328785 0.00227141 -0.00997548 0.847023 0.529262 3.63515e-17 0 0 0 
0.00329605 0.00225878 -0.0101314 0.82802 0.558523 1.78929e-17 85 136 165 
0.00328338 0.00227829 -0.0102741 0.82802 0.558523 1.78929e-17 85 136 165 
0.00352682 0.0018769 -0.0102698 0.897705 0.437824 1.4199e-16 0 0 0 
0.00354727 0.00183678 -0.010131 0.897705 0.437824 1.4199e-16 0 0 0 
0.00351063 0.00190869 -0.0101059 0.881865 0.468912 8.96167e-17 85 136 165 
0.00361745 0.00169904 -0.00991638 0.881865 0.468912 8.96167e-17 0 0 0 
0.00355233 0.00182685 -0.0114539 0.881865 0.468912 -8.89048e-18 161 151 72 
0.00351966 0.00189097 -0.0112615 0.881865 0.468912 -8.89048e-18 161 151 72 
0.00363128 0.0016719 -0.0111261 0.897705 0.437824 -7.97221e-17 161 151 72 
0.0035384 0.00185417 -0.0111238 0.897705 0.437824 -7.97221e-17 0 0 0 
0.00324493 0.0023375 -0.0114982 0.82802 0.558523 -8.89048e-18 0 0 0 
0.00324977 0.00233004 -0.0112407 0.82802 0.558523 -8.89048e-18 0 0 0 
0.00338725 0.00211834 -0.0112705 0.847023 0.529262 -8.89048e-18 161 151 72 
0.00343385 0.00204659 -0.0111844 0.847023 0.529262 -8.89048e-18 161 151 72 
0.00338442 0.00212269 -0.0107679 0.847023 0.529262 -8.89048e-18 161 151 72 
0.00339322 0.00210916 -0.0107168 0.847023 0.529262 -8.89048e-18 161 151 72 
0.00333334 0.00220135 -0.0108868 0.82802 0.558523 -8.89048e-18 161 151 72 
0.00361745 0.00169904 -0.0109216 0.897705 0.437824 -7.97221e-17 161 151 72 
0.00362657 0.00168114 -0.0110095 0.897705 0.437824 -7.97221e-17 161 151 72 
0.00354632 0.00183863 -0.0109129 0.881865 0.468912 -8.89048e-18 161 151 72 
0.00353308 0.00186462 -0.0107636 0.881865 0.468912 -8.89048e-18 161 151 72 
0.00354493 0.00184137 -0.0122009 0.881865 0.468912 8.89048e-18 161 151 72 
0.00356929 0.00179355 -0.0122262 0.881865 0.468912 8.89048e-18 161 151 72 
0.00355991 0.00181197 -0.0121062 0.897705 0.437824 7.97221e-17 0 0 0 
0.00357426 0.0017838 -0.0121043 0.897705 0.437824 7.97221e-17 0 0 0 
0.00325239 0.00232601 -0.0122453 0.82802 0.558523 8.89048e-18 0 0 0 
0.00334833 0.00217828 -0.0120487 0.82802 0.558523 8.89048e-18 161 151 72 
0.00335897 0.00216189 -0.0122756 0.847023 0.529262 8.89048e-18 0 0 0 
0.00336296 0.00215574 -0.0121353 0.847023 0.529262 8.89048e-18 0 0 0 
0.00340918 0.00208458 -0.0117357 0.847023 0.529262 8.89048e-18 161 151 72 
0.00336919 0.00214614 -0.0117131 0.847023 0.529262 8.89048e-18 0 0 0 
0.003341 0.00218957 -0.0118427 0.82802 0.558523 8.89048e-18 161 151 72 
0.00324789 0.00233294 -0.0116366 0.82802 0.558523 8.89048e-18 0 0 0 
0.00358561 0.00176153 -0.011791 0.897705 0.437824 7.97221e-17 161 151 72 
0.00364281 0.00164926 -0.0118681 0.897705 0.437824 7.97221e-17 0 0 0 
0.0035173 0.00189559 -0.011825 0.881865 0.468912 8.89048e-18 161 151 72 
0.0035086 0.00191266 -0.0118335 0.881865 0.468912 8.89048e-18 0 0 0 
0.00354458 0.00184206 -0.0129917 0.881865 0.468912 -8.89048e-18 161 151 72 
0.00349193 0.00194539 -0.0128079 0.897705 0.437824 -7.97221e-17 0 0 0 
0.00355713 0.00181742 -0.0128709 0.897705 0.437824 -7.97221e-17 0 0 0 
0.00333032 0.00220601 -0.012854 0.82802 0.558523 -8.89048e-18 161 151 72 
0.00329415 0.0022617 -0.012877 0.82802 0.558523 -8.89048e-18 0 0 0 
0.00343957 0.00203778 -0.0129474 0.847023 0.529262 -8.89048e-18 161 151 72 
0.00328552 0.00227499 -0.0131308 0.847023 0.529262 -8.89048e-18 0 0 0 
0.00342461 0.00206081 -0.0125614 0.847023 0.529262 -8.89048e-18 161 151 72 
0.00345287 0.0020173 -0.0125195 0.847023 0.529262 -8.89048e-18 0 0 0 
0.00330068 0.00225165 -0.0124972 0.82802 0.558523 -8.89048e-18 0 0 0 
0.00326001 0.00231428 -0.0126163 0.82802 0.558523 -8.89048e-18 0 0 0 
0.00359119 0.00175058 -0.0125586 0.897705 0.437824 -7.97221e-17 161 151 72 
0.00362236 0.0016894 -0.0126144 0.897705 0.437824 -7.97221e-17 161 151 72 
0.00354134 0.00184841 -0.0124713 0.881865 0.468912 -8.89048e-18 161 151 72 
0.00348156 0.00196574 -0.012358 0.881865 0.468912 -8.89048e-18 0 0 0 
0.00352885 0.00187292 -0.0138468 0.881865 0.468912 4.50748e-17 161 151 72 
0.00350806 0.00191374 -0.0137442 0.881865 0.468912 4.50748e-17 0 0 0 
0.00355862 0.0018145 -0.0137779 0.897705 0.437824 1.1889e-16 0 0 0 
0.00360746 0.00171864 -0.0137607 0.897705 0.437824 1.1889e-16 161 151 72 
0.00334083 0.00218983 -0.0137093 0.82802 0.558523 1.29257e-17 161 151 72 
0.00343368 0.00204685 -0.0137433 0.847023 0.529262 9.94195e-18 161 151 72 
0.0033736 0.00213936 -0.0137831 0.847023 0.529262 9.94195e-18 0 0 0 
0.00331733 0.00222602 -0.0132562 0.847023 0.529262 1.29257e-17 0 0 0 
0.00341236 0.00207968 -0.0133085 0.847023 0.529262 1.29257e-17 161 151 72 
0.00327908 0.00228491 -0.0133209 0.82802 0.558523 1.29257e-17 0 0 0 
0.00325555 0.00232114 -0.0135592 0.82802 0.558523 1.29257e-17 0 0 0 
0.00359367 0.0017457 -0.0134092 0.897705 0.437824 8.37573e-17 161 151 72 
0.00363356 0.00166742 -0.0135311 0.897705 0.437824 8.37573e-17 161 151 72 
0.00348201 0.00196486 -0.0134637 0.881865 0.468912 1.29257e-17 0 0 0 
0.00347594 0.00197677 -0.0135334 0.881865 0.468912 1.29257e-17 0 0 0 
0.0030894 0.00253226 -0.000652621 0.765102 0.642016 0 161 151 72 
0.00304216 0.0025906 -0.00078638 0.765102 0.642016 0 85 136 165 
0.00312341 0.00249026 -0.000643041 0.78706 0.6149 0 85 136 165 
0.00314045 0.00246921 -0.000580007 0.78706 0.6149 0 161 151 72 
0.00270238 0.00294672 -0.00050875 0.693802 0.718473 0 0 0 0 
0.0027632 0.0028859 -0.000591649 0.693802 0.718473 0 85 136 165 
0.00289434 0.00275476 -0.000566128 0.718473 0.693802 0 161 151 72 
0.00285876 0.00279034 -0.000763559 0.718473 0.693802 0 85 136 165 
0.00288086 0.00276824 -2.78278e-05 0.718473 0.693802 0 161 151 72 
0.00288056 0.00276854 -0.000273154 0.718473 0.693802 0 161 151 72 
0.00278786 0.00286124 -0.000316943 0.693802 0.718473 0 161 151 72 
0.00322939 0.00235939 -0.000332036 0.78706 0.6149 0 0 0 0 
0.00316954 0.00243329 -0.000385522 0.78706 0.6149 0 161 151 72 
0.00299955 0.00264322 -0.000265253 0.765102 0.642016 0 0 0 0 
0.00297692 0.00267116 -0.000289129 0.765102 0.642016 0 0 0 0 
0.00303962 0.00259373 -0.001375 0.765102 0.642016 8.46902e-17 85 136 165 
0.00312356 0.00249008 -0.00154268 0.765102 0.642016 8.46902e-17 161 151 72 
0.00306022 0.0025683 -0.00133877 0.78706 0.6149 2.25432e-17 0 0 0 
0.00318307 0.00241659 -0.0014852 0.78706 0.6149 2.25432e-17 161 151 72 
0.00273259 0.00291651 -0.00146491 0.693802 0.718473 1.40001e-16 85 136 165 
0.00289972 0.00274938 -0.00127688 0.693802 0.718473 1.40001e-16 0 0 0 
0.00294471 0.00270439 -0.00149843 0.718473 0.693802 2.02148e-16 161 151 72 
0.00277317 0.00287593 -0.00152805 0.718473 0.693802 2.02148e-16 0 0 0 
0.00282703 0.00282207 -0.000854153 0.718473 0.693802 2.25432e-17 85 136 165 
0.00288483 0.00276428 -0.000840389 0.718473 0.693802 2.25432e-17 161 151 72 
0.00270349 0.00294561 -0.000920701 0.693802 0.718473 2.25432e-17 0 0 0 
0.0026871 0.002962 -0.00121038 0.693802 0.718473 2.25432e-17 0 0 0 
0.00315464 0.0024517 -0.000958852 0.78706 0.6149 2.25432e-17 161 151 72 
0.00323243 0.00235563 -0.00105716 0.78706 0.6149 2.25432e-17 0 0 0 
0.00298333 0.00266325 -0.000840164 0.765102 0.642016 2.25432e-17 0 0 0 
0.00299491 0.00264895 -0.00086492 0.765102 0.642016 2.25432e-17 0 0 0 
0.00307579 0.00254907 -0.00226181 0.765102 0.642016 3.56552e-17 161 151 72 
0.00322638 0.00236311 -0.00207793 0.78706 0.6149 3.56552e-17 0 0 0 
0.00307606 0.00254874 -0.00213763 0.78706 0.6149 3.56552e-17 0 0 0 
0.00270269 0.00294641 -0.00220995 0.693802 0.718473 1.4012e-16 0 0 0 
0.00276385 0.00288525 -0.00206974 0.693802 0.718473 1.4012e-16 85 136 165 
0.00273734 0.00291176 -0.00246227 0.718473 0.693802 3.56552e-17 0 0 0 
0.00281411 0.00283499 -0.00234068 0.718473 0.693802 3.56552e-17 0 0 0 
0.00279804 0.00285106 -0.00178809 0.718473 0.693802 2.1526e-16 0 0 0 
0.00295899 0.00269011 -0.00185158 0.718473 0.693802 2.1526e-16 161 151 72 
0.00273622 0.00291288 -0.00186874 0.693802 0.718473 2.57578e-16 85 136 165 
0.00273369 0.00291541 -0.00200575 0.693802 0.718473 2.57578e-16 85 136 165 
0.00320838 0.00238533 -0.00178825 0.78706 0.6149 3.56552e-17 161 151 72 
0.00315094 0.00245627 -0.0020024 0.78706 0.6149 3.56552e-17 161 151 72 
0.00305566 0.00257393 -0.00186012 0.765102 0.642016 9.78023e-17 161 151 72 
0.00312398 0.00248956 -0.00165354 0.765102 0.642016 9.78023e-17 161 151 72 
0.00303509 0.00259932 -0.00310645 0.765102 0.642016 -1.3112e-17 85 136 165 
0.00298353 0.002663 -0.00309195 0.765102 0.642016 -1.3112e-17 0 0 0 
0.0030852 0.00253744 -0.00300605 0.78706 0.6149 -1.3112e-17 0 0 0 
0.00307772 0.00254668 -0.00294678 0.78706 0.6149 -1.3112e-17 0 0 0 
0.00269612 0.00295298 -0.00299598 0.693802 0.718473 -1.17577e-16 0 0 0 
0.00277892 0.00287018 -0.00309875 0.693802 0.718473 -1.17577e-16 161 151 72 
0.00295775 0.00269135 -0.00307462 0.718473 0.693802 -1.3112e-17 161 151 72 
0.00290549 0.00274361 -0.00255319 0.718473 0.693802 -1.3112e-17 161 151 72 
0.00277975 0.00286935 -0.0025083 0.718473 0.693802 -1.3112e-17 0 0 0 
0.00276688 0.00288222 -0.00262897 0.693802 0.718473 -1.17577e-16 85 136 165 
0.00272137 0.00292773 -0.00257027 0.693802 0.718473 -1.17577e-16 0 0 0 
0.00321484 0.00237735 -0.00254601 0.78706 0.6149 -1.3112e-17 161 151 72 
0.00311895 0.00249577 -0.00278627 0.78706 0.6149 -1.3112e-17 85 136 165 
0.00312678 0.0024861 -0.00254174 0.765102 0.642016 -1.3112e-17 161 151 72 
0.00299146 0.00265321 -0.00285025 0.765102 0.642016 -1.3112e-17 0 0 0 
0.00301522 0.00262386 -0.00395847 0.765102 0.642016 1.14813e-17 0 0 0 
0.00316392 0.00244024 -0.00406792 0.765102 0.642016 1.14813e-17 0 0 0 
0.00309176 0.00252935 -0.00383731 0.78706 0.6149 1.14813e-17 0 0 0 
0.00308143 0.0025421 -0.00385157 0.78706 0.6149 1.14813e-17 0 0 0 
0.00269121 0.0029579 -0.0037798 0.693802 0.718473 1.02954e-16 0 0 0 
0.00268051 0.00296859 -0.00390095 0.693802 0.718473 1.02954e-16 0 0 0 
0.00293416 0.00271494 -0.00409702 0.718473 0.693802 -1.51098e-18 161 151 72 
0.00275742 0.00289168 -0.00404034 0.718473 0.693802 -1.51098e-18 0 0 0 
0.00291335 0.00273576 -0.00330788 0.718473 0.693802 1.14813e-17 161 151 72 
0.00293376 0.00271534 -0.00347441 0.718473 0.693802 1.14813e-17 161 151 72 
0.00275715 0.00289195 -0.00358528 0.693802 0.718473 1.15947e-16 85 136 165 
0.00322873 0.0023602 -0.00337476 0.78706 0.6149 1.14813e-17 0 0 0 
0.00319258 0.00240485 -0.00344053 0.78706 0.6149 1.14813e-17 161 151 72 
0.00304865 0.00258259 -0.00354341 0.765102 0.642016 1.14813e-17 85 136 165 
0.00306426 0.00256331 -0.00342996 0.765102 0.642016 1.14813e-17 161 151 72 
0.00308082 0.00254285 -0.00478833 0.765102 0.642016 0 161 151 72 
0.00297459 0.00267404 -0.00484649 0.765102 0.642016 0 0 0 0 
0.00310858 0.00250858 -0.00470057 0.78706 0.6149 0 0 0 0 
0.00314485 0.00246379 -0.00460447 0.78706 0.6149 0 161 151 72 
0.00268337 0.00296573 -0.00454801 0.693802 0.718473 1.29923e-17 0 0 0 
0.00276406 0.00288504 -0.00460513 0.693802 0.718473 1.29923e-17 85 136 165 
0.00289467 0.00275444 -0.00483956 0.718473 0.693802 1.29923e-17 161 151 72 
0.00295526 0.00269384 -0.00492886 0.718473 0.693802 1.29923e-17 161 151 72 
0.0027897 0.0028594 -0.0042168 0.718473 0.693802 -1.29923e-17 0 0 0 
0.00288176 0.00276734 -0.00415987 0.718473 0.693802 -1.29923e-17 161 151 72 
0.00276606 0.00288304 -0.00444636 0.693802 0.718473 -1.29923e-17 85 136 165 
0.00271979 0.00292931 -0.00445605 0.693802 0.718473 -1.29923e-17 0 0 0 
0.00314878 0.00245893 -0.00438583 0.78706 0.6149 0 161 151 72 
0.00318944 0.00240872 -0.0042481 0.78706 0.6149 0 161 151 72 
0.00306992 0.00255632 -0.00435053 0.765102 0.642016 0 161 151 72 
0.00299227 0.00265221 -0.00443725 0.765102 0.642016 0 0 0 0 
0.00312312 0.00249063 -0.0056523 0.765102 0.642016 -9.61715e-17 161 151 72 
0.00322576 0.00236387 -0.00564311 0.78706 0.6149 -3.40245e-17 0 0 0 
0.00317457 0.00242709 -0.00561793 0.78706 0.6149 -3.40245e-17 161 151 72 
0.00273974 0.00290936 -0.00566838 0.693802 0.718473 -2.55947e-16 85 136 165 
0.00290758 0.00274153 -0.00536376 0.693802 0.718473 -2.55947e-16 0 0 0 
0.00296989 0.00267921 -0.00554481 0.718473 0.693802 -2.13629e-16 0 0 0 
0.00291549 0.00273361 -0.00570327 0.718473 0.693802 -2.13629e-16 161 151 72 
0.00279791 0.00285119 -0.00507386 0.718473 0.693802 -2.10322e-17 0 0 0 
0.00284928 0.00279982 -0.00513035 0.718473 0.693802 -2.10322e-17 85 136 165 
0.00276966 0.00287944 -0.00518359 0.693802 0.718473 -1.25497e-16 85 136 165 
0.00270395 0.00294516 -0.00533885 0.693802 0.718473 -1.25497e-16 0 0 0 
0.00320641 0.00238776 -0.00506943 0.78706 0.6149 -3.40245e-17 161 151 72 
0.00322822 0.00236083 -0.00522437 0.78706 0.6149 -3.40245e-17 0 0 0 
0.00313586 0.00247489 -0.00501584 0.765102 0.642016 -3.40245e-17 161 151 72 
0.002983 0.00266365 -0.00502248 0.765102 0.642016 -3.40245e-17 0 0 0 
0.00297545 0.00267298 -0.00658688 0.765102 0.642016 6.2147e-17 0 0 0 
0.00299474 0.00264916 -0.00629336 0.765102 0.642016 6.2147e-17 0 0 0 
0.00313717 0.00247327 -0.00626454 0.78706 0.6149 0 85 136 165 
0.00322708 0.00236224 -0.00632601 0.78706 0.6149 0 0 0 0 
0.00279664 0.00285246 -0.00623419 0.693802 0.718473 1.17458e-16 161 151 72 
0.00274822 0.00290088 -0.00630995 0.693802 0.718473 1.17458e-16 85 136 165 
0.00281185 0.00283725 -0.00653369 0.718473 0.693802 1.79605e-16 0 0 0 
0.00285407 0.00279503 -0.00595524 0.718473 0.693802 -1.79605e-16 85 136 165 
0.00291795 0.00273115 -0.00577266 0.718473 0.693802 -1.79605e-16 161 151 72 
0.00278472 0.00286438 -0.00602762 0.693802 0.718473 -1.17458e-16 161 151 72 
0.00272473 0.00292437 -0.00615198 0.693802 0.718473 -1.17458e-16 85 136 165 
0.00321613 0.00237576 -0.00597124 0.78706 0.6149 0 161 151 72 
0.0032182 0.0023732 -0.00606237 0.78706 0.6149 0 161 151 72 
0.00300455 0.00263704 -0.00611579 0.765102 0.642016 -6.2147e-17 0 0 0 
0.00306105 0.00256728 -0.00600801 0.765102 0.642016 -6.2147e-17 161 151 72 
0.00310462 0.00251346 -0.00734303 0.765102 0.642016 3.56552e-17 161 151 72 
0.00302035 0.00261753 -0.00712392 0.765102 0.642016 3.56552e-17 85 136 165 
0.00311767 0.00249735 -0.00718403 0.78706 0.6149 3.56552e-17 85 136 165 
0.00313812 0.00247209 -0.00719116 0.78706 0.6149 3.56552e-17 85 136 165 
0.00273225 0.00291685 -0.00722953 0.693802 0.718473 1.4012e-16 85 136 165 
0.00271158 0.00293753 -0.00735525 0.693802 0.718473 1.4012e-16 0 0 0 
0.00276001 0.00288909 -0.0073755 0.718473 0.693802 3.56552e-17 0 0 0 
0.00292385 0.00272525 -0.00728679 0.718473 0.693802 3.56552e-17 161 151 72 
0.00284397 0.00280513 -0.00673643 0.718473 0.693802 2.1526e-16 85 136 165 
0.00287022 0.00277888 -0.00679349 0.718473 0.693802 2.1526e-16 161 151 72 
0.00283806 0.00281105 -0.00685347 0.693802 0.718473 2.57578e-16 161 151 72 
0.00304022 0.002593 -0.00696188 0.78706 0.6149 3.56552e-17 0 0 0 
0.00318131 0.00241876 -0.00687823 0.78706 0.6149 3.56552e-17 161 151 72 
0.00307966 0.00254429 -0.00659375 0.765102 0.642016 9.78023e-17 161 151 72 
0.0031303 0.00248175 -0.00662209 0.765102 0.642016 9.78023e-17 161 151 72 
0.00304139 0.00259155 -0.00810721 0.765102 0.642016 -9.61715e-17 85 136 165 
0.0029802 0.00266711 -0.00820958 0.765102 0.642016 -9.61715e-17 0 0 0 
0.00317098 0.00243151 -0.00784389 0.78706 0.6149 -3.40245e-17 161 151 72 
0.00316769 0.00243558 -0.00808594 0.78706 0.6149 -3.40245e-17 161 151 72 
0.00279212 0.00285698 -0.0079942 0.693802 0.718473 -2.42955e-16 161 151 72 
0.00282052 0.00282859 -0.00789163 0.693802 0.718473 -2.42955e-16 161 151 72 
0.00288249 0.00276662 -0.00811803 0.718473 0.693802 -2.00637e-16 161 151 72 
0.00295818 0.00269092 -0.00812337 0.718473 0.693802 -2.00637e-16 161 151 72 
0.00294485 0.00270425 -0.00748027 0.718473 0.693802 -3.40245e-17 161 151 72 
0.00289808 0.00275102 -0.00758311 0.718473 0.693802 -3.40245e-17 161 151 72 
0.00275713 0.00289198 -0.00780566 0.693802 0.718473 -1.3849e-16 85 136 165 
0.00281389 0.00283521 -0.00776987 0.693802 0.718473 -1.3849e-16 161 151 72 
0.00318211 0.00241777 -0.00773448 0.78706 0.6149 -3.40245e-17 161 151 72 
0.00317377 0.00242807 -0.00765807 0.78706 0.6149 -3.40245e-17 161 151 72 
0.00302479 0.00261205 -0.00758066 0.765102 0.642016 -3.40245e-17 85 136 165 
0.00322026 0.00237066 -0.00742586 0.765102 0.642016 -3.40245e-17 0 0 0 
0.0029875 0.0026581 -0.00905604 0.765102 0.642016 -1.7651e-17 0 0 0 
0.00314892 0.00245876 -0.00877924 0.78706 0.6149 -1.7651e-17 161 151 72 
0.00322816 0.00236091 -0.00900099 0.78706 0.6149 -1.7651e-17 0 0 0 
0.00278556 0.00286354 -0.00868239 0.693802 0.718473 8.33355e-18 161 151 72 
0.00268215 0.00296695 -0.00897371 0.693802 0.718473 8.33355e-18 0 0 0 
0.00292719 0.00272191 -0.00889688 0.718473 0.693802 -1.7651e-17 161 151 72 
0.00277841 0.0028707 -0.00896304 0.718473 0.693802 -1.7651e-17 0 0 0 
0.00289199 0.00275711 -0.00833134 0.718473 0.693802 -1.84263e-16 161 151 72 
0.00274186 0.00290725 -0.00824589 0.718473 0.693802 -1.84263e-16 0 0 0 
0.00268253 0.00296657 -0.00855081 0.693802 0.718473 -9.61317e-17 0 0 0 
0.00272973 0.00291937 -0.00864264 0.693802 0.718473 -9.61317e-17 85 136 165 
0.00304481 0.00258732 -0.00857704 0.78706 0.6149 -1.7651e-17 0 0 0 
0.00307338 0.00255205 -0.00862723 0.78706 0.6149 -1.7651e-17 0 0 0 
0.00303753 0.00259632 -0.00849219 0.765102 0.642016 -7.9798e-17 85 136 165 
0.0030145 0.00262476 -0.00852138 0.765102 0.642016 -7.9798e-17 0 0 0 
0.00302746 0.00260875 -0.00986346 0.765102 0.642016 -4.8922e-18 85 136 165 
0.00309413 0.00252642 -0.00972829 0.765102 0.642016 -4.8922e-18 161 151 72 
0.00304523 0.0025868 -0.00949644 0.78706 0.6149 -4.8922e-18 0 0 0 
0.00307358 0.0025518 -0.00958338 0.78706 0.6149 -4.8922e-18 0 0 0 
0.00271146 0.00293764 -0.00965197 0.693802 0.718473 -4.3869e-17 0 0 0 
0.00270616 0.00294294 -0.00962137 0.693802 0.718473 -4.3869e-17 0 0 0 
0.00281409 0.00283501 -0.00974002 0.718473 0.693802 -1.78845e-17 0 0 0 
0.00275718 0.00289192 -0.00912146 0.718473 0.693802 -4.8922e-18 0 0 0 
0.00285589 0.00279321 -0.00923823 0.718473 0.693802 -4.8922e-18 85 136 165 
0.00277584 0.00287326 -0.00936332 0.693802 0.718473 -3.08767e-17 161 151 72 
0.00276776 0.00288134 -0.00937547 0.693802 0.718473 -3.08767e-17 85 136 165 
0.00311287 0.00250328 -0.00945417 0.78706 0.6149 -4.8922e-18 85 136 165 
0.00307368 0.00255167 -0.00932654 0.78706 0.6149 -4.8922e-18 0 0 0 
0.00310436 0.00251378 -0.00918317 0.765102 0.642016 -4.8922e-18 161 151 72 
0.00298139 0.00266564 -0.00943992 0.765102 0.642016 -4.8922e-18 0 0 0 
0.00303314 0.00260174 -0.0106507 0.765102 0.642016 -1.63073e-18 85 136 165 
0.00310142 0.00251742 -0.0106326 0.765102 0.642016 -1.63073e-18 161 151 72 
0.00311033 0.00250642 -0.0104674 0.78706 0.6149 -1.63073e-18 85 136 165 
0.00323598 0.00235124 -0.010355 0.78706 0.6149 -1.63073e-18 0 0 0 
0.00270155 0.00294755 -0.0103894 0.693802 0.718473 -1.63073e-18 0 0 0 
0.00270825 0.00294085 -0.0103265 0.693802 0.718473 -1.63073e-18 0 0 0 
0.00283446 0.00281464 -0.0106744 0.718473 0.693802 -1.63073e-18 85 136 165 
0.00273106 0.00291804 -0.0106554 0.718473 0.693802 -1.63073e-18 0 0 0 
0.00297169 0.00267741 -0.00992167 0.718473 0.693802 -1.4623e-17 0 0 0 
0.00294917 0.00269993 -0.0100735 0.718473 0.693802 -1.4623e-17 161 151 72 
0.00277794 0.00287116 -0.0101251 0.693802 0.718473 -1.4623e-17 161 151 72 
0.00271841 0.00293069 -0.00995253 0.693802 0.718473 -1.4623e-17 0 0 0 
0.00319879 0.00239718 -0.0102171 0.78706 0.6149 -1.63073e-18 161 151 72 
0.00310144 0.0025174 -0.0100237 0.765102 0.642016 -1.63073e-18 161 151 72 
0.00310808 0.00250919 -0.00992124 0.765102 0.642016 -1.63073e-18 161 151 72 
0.00304383 0.00258854 -0.011242 0.765102 0.642016 8.46902e-17 85 136 165 
0.00313621 0.00247445 -0.0113797 0.765102 0.642016 8.46902e-17 161 151 72 
0.00317024 0.00243244 -0.0111676 0.78706 0.6149 2.25432e-17 161 151 72 
0.00321653 0.00237527 -0.0111988 0.78706 0.6149 2.25432e-17 161 151 72 
0.00283884 0.00281026 -0.0112961 0.693802 0.718473 1.40001e-16 161 151 72 
0.00283973 0.00280937 -0.0112479 0.693802 0.718473 1.40001e-16 161 151 72 
0.0027478 0.0029013 -0.0114693 0.718473 0.693802 2.02148e-16 0 0 0 
0.0029065 0.0027426 -0.0112464 0.718473 0.693802 2.02148e-16 161 151 72 
0.00295752 0.00269158 -0.0108738 0.718473 0.693802 2.25432e-17 161 151 72 
0.00285833 0.00279077 -0.0109401 0.718473 0.693802 2.25432e-17 85 136 165 
0.00281024 0.00283887 -0.0109137 0.693802 0.718473 2.25432e-17 161 151 72 
0.00284383 0.00280527 -0.0110851 0.693802 0.718473 2.25432e-17 161 151 72 
0.0031693 0.00243359 -0.0109192 0.78706 0.6149 2.25432e-17 161 151 72 
0.00322398 0.00236606 -0.0109489 0.78706 0.6149 2.25432e-17 161 151 72 
0.00312435 0.00248911 -0.0108484 0.765102 0.642016 2.25432e-17 161 151 72 
0.0030101 0.00263019 -0.0108247 0.765102 0.642016 2.25432e-17 0 0 0 
0.00300018 0.00264244 -0.0121152 0.765102 0.642016 -4.9035e-17 0 0 0 
0.00307826 0.00254602 -0.0119412 0.78706 0.6149 1.3112e-17 0 0 0 
0.00300607 0.00263517 -0.0119529 0.78706 0.6149 1.3112e-17 0 0 0 
0.0027854 0.0028637 -0.0120488 0.693802 0.718473 1.19759e-19 161 151 72 
0.00273533 0.00291377 -0.0120273 0.693802 0.718473 1.19759e-19 85 136 165 
0.00287877 0.00277033 -0.0120821 0.718473 0.693802 -1.66493e-16 161 151 72 
0.00293884 0.00271026 -0.0123518 0.718473 0.693802 -1.66493e-16 161 151 72 
0.00286362 0.00278548 -0.0116828 0.718473 0.693802 1.92717e-16 85 136 165 
0.00293884 0.00271026 -0.0116307 0.718473 0.693802 1.92717e-16 161 151 72 
0.00274157 0.00290753 -0.011714 0.693802 0.718473 2.35035e-16 85 136 165 
0.00270195 0.00294715 -0.0118148 0.693802 0.718473 2.35035e-16 0 0 0 
0.00323489 0.0023526 -0.0116756 0.78706 0.6149 1.3112e-17 0 0 0 
0.00316936 0.00243352 -0.0118767 0.78706 0.6149 1.3112e-17 161 151 72 
0.00309105 0.00253022 -0.0115713 0.765102 0.642016 7.52591e-17 161 151 72 
0.00315665 0.00244921 -0.0116371 0.765102 0.642016 7.52591e-17 0 0 0 
0.00312152 0.00249259 -0.0130107 0.765102 0.642016 -3.23937e-17 161 151 72 
0.00314299 0.00246609 -0.0130416 0.765102 0.642016 -3.23937e-17 0 0 0 
0.00320361 0.00239123 -0.0129519 0.78706 0.6149 -3.23937e-17 161 151 72 
0.00301869 0.00261958 -0.0127817 0.78706 0.6149 -3.23937e-17 0 0 0 
0.00274528 0.00290383 -0.0129761 0.693802 0.718473 -1.10874e-16 85 136 165 
0.00278369 0.00286541 -0.0128657 0.693802 0.718473 -1.10874e-16 161 151 72 
0.00296506 0.00268404 -0.012791 0.718473 0.693802 -3.23937e-17 161 151 72 
0.00288095 0.00276815 -0.0124483 0.718473 0.693802 -2.11998e-16 161 151 72 
0.00291962 0.00272948 -0.0125203 0.718473 0.693802 -2.11998e-16 161 151 72 
0.0027882 0.0028609 -0.0126166 0.693802 0.718473 -2.28332e-16 161 151 72 
0.00273562 0.00291348 -0.0124423 0.693802 0.718473 -2.28332e-16 85 136 165 
0.00312046 0.00249391 -0.0126818 0.78706 0.6149 -3.23937e-17 0 0 0 
0.00320873 0.00238491 -0.0127095 0.78706 0.6149 -3.23937e-17 161 151 72 
0.003144 0.00246484 -0.0124282 0.765102 0.642016 -9.45408e-17 0 0 0 
0.00307291 0.00255262 -0.0125373 0.765102 0.642016 -9.45408e-17 161 151 72 
0.00299716 0.00264616 -0.013844 0.765102 0.642016 -3.26147e-18 0 0 0 
0.00314033 0.00246937 -0.0138644 0.765102 0.642016 -3.26147e-18 0 0 0 
0.0031355 0.00247533 -0.0138203 0.78706 0.6149 -3.26147e-18 0 0 0 
0.00312928 0.00248301 -0.0138119 0.78706 0.6149 -3.26147e-18 0 0 0 
0.00279908 0.00285002 -0.0136631 0.693802 0.718473 -2.9246e-17 161 151 72 
0.00267662 0.00297249 -0.0138748 0.693802 0.718473 -2.9246e-17 0 0 0 
0.00276113 0.00288797 -0.0139278 0.718473 0.693802 -3.26147e-18 0 0 0 
0.00284318 0.00280592 -0.0139452 0.718473 0.693802 -3.26147e-18 0 0 0 
0.00294355 0.00270555 -0.0132619 0.718473 0.693802 -3.26147e-18 161 151 72 
0.00278829 0.00286081 -0.013319 0.718473 0.693802 -3.26147e-18 0 0 0 
0.00283178 0.00281732 -0.0134025 0.693802 0.718473 -2.9246e-17 161 151 72 
0.00281523 0.00283387 -0.0135274 0.693802 0.718473 -2.9246e-17 161 151 72 
0.00319196 0.00240561 -0.0134403 0.78706 0.6149 -3.26147e-18 161 151 72 
0.003011 0.00262907 -0.0133758 0.765102 0.642016 -3.26147e-18 0 0 0 
0.00305537 0.00257429 -0.0132423 0.765102 0.642016 -3.26147e-18 161 151 72 
0.00247422 0.0031364 -0.000698867 0.6149 0.78706 3.06939e-17 161 151 72 
0.00241479 0.00318453 -0.000603272 0.6149 0.78706 3.06939e-17 85 136 165 
0.00252056 0.00309888 -0.00052785 0.642016 0.765102 8.66822e-18 85 136 165 
0.00243087 0.0031715 -0.000413407 0.642016 0.765102 8.66822e-18 0 0 0 
0.0020697 0.00341884 -0.000592885 0.529262 0.847023 5.57033e-17 85 136 165 
0.00218218 0.00334579 -0.000590152 0.529262 0.847023 5.57033e-17 161 151 72 
0.00214419 0.00337046 -0.000796701 0.558523 0.82802 5.42115e-17 0 0 0 
0.00220246 0.00333262 -0.000656594 0.558523 0.82802 5.42115e-17 85 136 165 
0.00227418 0.00328605 -7.12456e-05 0.558523 0.82802 8.66822e-18 161 151 72 
0.00229369 0.00327338 -0.000136394 0.558523 0.82802 8.66822e-18 161 151 72 
0.00215003 0.00336667 -0.00019233 0.529262 0.847023 3.21858e-17 161 151 72 
0.00210727 0.00339444 -0.000258358 0.529262 0.847023 3.21858e-17 85 136 165 
0.00244996 0.00315605 -0.000401859 0.642016 0.765102 8.66822e-18 0 0 0 
0.00259543 0.00303824 -0.000236525 0.642016 0.765102 8.66822e-18 161 151 72 
0.00242881 0.00317317 -0.000309703 0.6149 0.78706 8.66822e-18 85 136 165 
0.00257501 0.00305479 -5.14433e-05 0.6149 0.78706 8.66822e-18 0 0 0 
0.00257967 0.00305101 -0.00157515 0.6149 0.78706 2.27912e-16 0 0 0 
0.00239592 0.0031998 -0.00151764 0.6149 0.78706 2.27912e-16 85 136 165 
0.00254335 0.00308042 -0.00143452 0.642016 0.765102 1.50575e-16 85 136 165 
0.00227583 0.00328498 -0.00129825 0.529262 0.847023 5.66354e-17 0 0 0 
0.0021471 0.00336857 -0.00125838 0.529262 0.847023 5.66354e-17 161 151 72 
0.00229183 0.00327458 -0.00137621 0.558523 0.82802 1.33972e-16 161 151 72 
0.00231796 0.00325762 -0.00134514 0.558523 0.82802 1.33972e-16 161 151 72 
0.00222442 0.00331836 -0.00102346 0.558523 0.82802 7.86611e-17 85 136 165 
0.00227734 0.003284 -0.00105248 0.558523 0.82802 7.86611e-17 161 151 72 
0.00215476 0.0033636 -0.00114805 0.529262 0.847023 5.66354e-17 161 151 72 
0.00226175 0.00329412 -0.0011816 0.529262 0.847023 5.66354e-17 0 0 0 
0.00251441 0.00310386 -0.00106089 0.642016 0.765102 3.31179e-17 85 136 165 
0.00258835 0.00304398 -0.00122781 0.642016 0.765102 3.31179e-17 161 151 72 
0.00240261 0.00319439 -0.00105592 0.6149 0.78706 5.51436e-17 85 136 165 
0.00245495 0.003152 -0.00102131 0.6149 0.78706 5.51436e-17 85 136 165 
0.00250552 0.00311105 -0.00226624 0.6149 0.78706 4.34653e-17 161 151 72 
0.002516 0.00310257 -0.00242236 0.6149 0.78706 4.34653e-17 161 151 72 
0.00260536 0.0030302 -0.00222036 0.642016 0.765102 1.47931e-16 161 151 72 
0.00256392 0.00306376 -0.00223676 0.642016 0.765102 1.47931e-16 85 136 165 
0.00206157 0.00342412 -0.00226983 0.529262 0.847023 6.69829e-17 85 136 165 
0.00214324 0.00337108 -0.00210652 0.529262 0.847023 6.69829e-17 161 151 72 
0.00230506 0.00326599 -0.00236846 0.558523 0.82802 4.34653e-17 161 151 72 
0.00217488 0.00335053 -0.00168433 0.558523 0.82802 1.44319e-16 85 136 165 
0.00231538 0.00325929 -0.00184868 0.558523 0.82802 1.44319e-16 161 151 72 
0.00211415 0.00338997 -0.00198072 0.529262 0.847023 9.05005e-17 85 136 165 
0.00219726 0.003336 -0.00191473 0.529262 0.847023 9.05005e-17 161 151 72 
0.0025339 0.00308807 -0.00190623 0.642016 0.765102 2.65388e-16 85 136 165 
0.00238049 0.00321231 -0.00205762 0.642016 0.765102 2.65388e-16 0 0 0 
0.00243105 0.00317136 -0.00189259 0.6149 0.78706 2.38259e-16 85 136 165 
0.00255068 0.00307448 -0.00177981 0.6149 0.78706 2.38259e-16 161 151 72 
0.00240317 0.00319394 -0.00300976 0.6149 0.78706 -4.38059e-17 85 136 165 
0.00239657 0.00319928 -0.00310602 0.6149 0.78706 -4.38059e-17 85 136 165 
0.0024685 0.00314104 -0.00291182 0.642016 0.765102 -1.26245e-16 0 0 0 
0.00239501 0.00320054 -0.00291819 0.642016 0.765102 -1.26245e-16 0 0 0 
0.00206091 0.00342454 -0.00320152 0.529262 0.847023 -6.88154e-17 85 136 165 
0.00201784 0.00345252 -0.00319359 0.529262 0.847023 -6.88154e-17 0 0 0 
0.0023022 0.00326785 -0.00323834 0.558523 0.82802 -6.73235e-17 161 151 72 
0.00225245 0.00330016 -0.00302784 0.558523 0.82802 -6.73235e-17 161 151 72 
0.00222576 0.00331749 -0.00266958 0.558523 0.82802 -2.17802e-17 85 136 165 
0.00208544 0.00340862 -0.00253032 0.558523 0.82802 -2.17802e-17 0 0 0 
0.00203198 0.00344333 -0.0026032 0.529262 0.847023 -4.52978e-17 0 0 0 
0.00206777 0.00342009 -0.00257946 0.529262 0.847023 -4.52978e-17 85 136 165 
0.00266571 0.00298134 -0.00271862 0.642016 0.765102 -1.26245e-16 161 151 72 
0.00254135 0.00308204 -0.00255529 0.6149 0.78706 -2.17802e-17 161 151 72 
0.00245838 0.00314923 -0.00274044 0.6149 0.78706 -2.17802e-17 85 136 165 
0.00241429 0.00318493 -0.00398201 0.6149 0.78706 5.89171e-18 85 136 165 
0.00239222 0.0032028 -0.00401515 0.6149 0.78706 5.89171e-18 0 0 0 
0.00255907 0.00306769 -0.00390354 0.642016 0.765102 1.01324e-16 85 136 165 
0.00255945 0.00306738 -0.00386369 0.642016 0.765102 1.01324e-16 85 136 165 
0.00210398 0.00339658 -0.00399311 0.529262 0.847023 3.33681e-17 85 136 165 
0.00208924 0.00340615 -0.00390307 0.529262 0.847023 3.33681e-17 85 136 165 
0.00210413 0.00339648 -0.00403043 0.558523 0.82802 4.24015e-17 0 0 0 
0.00213965 0.00337341 -0.00397316 0.558523 0.82802 4.24015e-17 0 0 0 
0.00217689 0.00334923 -0.00331666 0.558523 0.82802 -3.56927e-17 85 136 165 
0.00230589 0.00326545 -0.00342247 0.558523 0.82802 -3.56927e-17 161 151 72 
0.00221878 0.00332203 -0.00358387 0.529262 0.847023 -1.3667e-17 161 151 72 
0.00201809 0.00345235 -0.00334378 0.529262 0.847023 -1.3667e-17 0 0 0 
0.00260174 0.00303314 -0.00346155 0.642016 0.765102 1.14316e-16 161 151 72 
0.00253595 0.00308641 -0.00348539 0.642016 0.765102 1.14316e-16 85 136 165 
0.00256335 0.00306423 -0.00331423 0.6149 0.78706 -1.21751e-17 161 151 72 
0.00239598 0.00319976 -0.00346632 0.6149 0.78706 -1.21751e-17 85 136 165 
0.00241809 0.00318186 -0.00466763 0.6149 0.78706 3.46528e-17 85 136 165 
0.00244691 0.00315851 -0.00475129 0.6149 0.78706 3.46528e-17 85 136 165 
0.00248205 0.00313006 -0.00457234 0.642016 0.765102 2.16605e-17 0 0 0 
0.00206575 0.0034214 -0.00468623 0.529262 0.847023 3.21858e-17 85 136 165 
0.00219302 0.00333876 -0.00469154 0.529262 0.847023 3.21858e-17 161 151 72 
0.0021754 0.0033502 -0.00473953 0.558523 0.82802 2.16605e-17 85 136 165 
0.00231474 0.00325971 -0.00489705 0.558523 0.82802 2.16605e-17 161 151 72 
0.00234132 0.00324244 -0.00449171 0.558523 0.82802 4.12192e-17 161 151 72 
0.00213911 0.00337376 -0.00416414 0.558523 0.82802 4.12192e-17 0 0 0 
0.00218621 0.00334317 -0.00444268 0.529262 0.847023 5.57033e-17 161 151 72 
0.00204917 0.00343217 -0.00426723 0.529262 0.847023 5.57033e-17 85 136 165 
0.00265976 0.00298615 -0.00441675 0.642016 0.765102 -4.32405e-18 161 151 72 
0.00245166 0.00315467 -0.00442706 0.642016 0.765102 -4.32405e-18 0 0 0 
0.00241477 0.00318454 -0.00425555 0.6149 0.78706 4.70937e-18 85 136 165 
0.00248807 0.00312519 -0.00417033 0.6149 0.78706 4.70937e-18 161 151 72 
0.00251251 0.00310539 -0.00562369 0.6149 0.78706 -2.34998e-16 161 151 72 
0.00248968 0.00312388 -0.00572346 0.6149 0.78706 -2.34998e-16 161 151 72 
0.00264145 0.00300098 -0.00563824 0.642016 0.765102 -2.62127e-16 161 151 72 
0.00254078 0.0030825 -0.00537911 0.642016 0.765102 -2.62127e-16 85 136 165 
0.00208952 0.00340597 -0.00552695 0.529262 0.847023 -8.7239e-17 85 136 165 
0.00203514 0.00344128 -0.00560862 0.529262 0.847023 -8.7239e-17 0 0 0 
0.00223786 0.00330963 -0.00574704 0.558523 0.82802 -1.41058e-16 85 136 165 
0.00205726 0.00342692 -0.0057435 0.558523 0.82802 -1.41058e-16 0 0 0 
0.00224246 0.00330665 -0.00509503 0.558523 0.82802 -2.72116e-17 161 151 72 
0.00209382 0.00340317 -0.00510987 0.529262 0.847023 -6.37214e-17 85 136 165 
0.0022764 0.0032846 -0.00533836 0.529262 0.847023 -6.37214e-17 0 0 0 
0.0026678 0.00297964 -0.00534534 0.642016 0.765102 -1.31677e-16 161 151 72 
0.00260018 0.0030344 -0.00512444 0.642016 0.765102 -1.31677e-16 161 151 72 
0.00252013 0.00309923 -0.00499576 0.6149 0.78706 -1.42193e-17 161 151 72 
0.00237286 0.00321848 -0.00496727 0.6149 0.78706 -1.42193e-17 0 0 0 
0.0025613 0.00306589 -0.00654646 0.6149 0.78706 1.94794e-16 161 151 72 
0.00247781 0.00313349 -0.00647803 0.6149 0.78706 1.94794e-16 161 151 72 
0.00259959 0.00303488 -0.00638898 0.642016 0.765102 1.17458e-16 161 151 72 
0.00266311 0.00298344 -0.00619678 0.642016 0.765102 1.17458e-16 161 151 72 
0.00211495 0.00338946 -0.00621347 0.529262 0.847023 2.35176e-17 85 136 165 
0.00206374 0.00342271 -0.00621377 0.529262 0.847023 2.35176e-17 85 136 165 
0.00233736 0.00324502 -0.00623738 0.558523 0.82802 1.00854e-16 161 151 72 
0.00227934 0.00328269 -0.0063888 0.558523 0.82802 1.00854e-16 161 151 72 
0.00207413 0.00341596 -0.00582455 0.558523 0.82802 -1.00854e-16 0 0 0 
0.00229537 0.00327229 -0.00580225 0.558523 0.82802 -1.00854e-16 161 151 72 
0.00231976 0.00325645 -0.00617503 0.529262 0.847023 -2.35176e-17 0 0 0 
0.00217115 0.00335296 -0.00616394 0.529262 0.847023 -2.35176e-17 161 151 72 
0.00259802 0.00303615 -0.00597655 0.642016 0.765102 -1.17458e-16 161 151 72 
0.00241353 0.00318555 -0.00589793 0.6149 0.78706 -1.94794e-16 85 136 165 
0.00235981 0.00322904 -0.00606182 0.6149 0.78706 -1.94794e-16 0 0 0 
0.00240123 0.00319551 -0.0071468 0.6149 0.78706 4.34653e-17 85 136 165 
0.00242153 0.00317907 -0.00721787 0.6149 0.78706 4.34653e-17 85 136 165 
0.00244972 0.00315624 -0.0070632 0.642016 0.765102 1.47931e-16 0 0 0 
0.00251764 0.00310124 -0.00709771 0.642016 0.765102 1.47931e-16 85 136 165 
0.00222546 0.00331769 -0.0071312 0.529262 0.847023 6.69829e-17 161 151 72 
0.00222749 0.00331637 -0.00702514 0.529262 0.847023 6.69829e-17 161 151 72 
0.00215445 0.0033638 -0.00732767 0.558523 0.82802 4.34653e-17 0 0 0 
0.00213521 0.00337629 -0.00738911 0.558523 0.82802 4.34653e-17 0 0 0 
