ply
format ascii 1.0
comment Generated by the CGAL library
element vertex 974
property double x
property double y
property double z
property double nx
property double ny
property double nz
property uchar red
property uchar green
property uchar blue
end_header
51.5131 0 36.9037 0 -1 0 0 0 0 
62.443 0 35.9877 0 -1 0 91 110 191 
60.053 0 35.516 0 -1 0 0 0 0 
50.0622 0 36.9479 0 -1 0 0 0 0 
61.6106 0 35.4909 0 -1 0 91 110 191 
61.7968 0 36.8533 0 -1 0 0 0 0 
54.7793 0 37.6984 0 -1 0 0 0 0 
56.214 0 38.6056 0 -1 0 0 0 0 
45.1222 0 38.5568 0 -1 0 0 0 0 
55.8971 0 37.4772 0 -1 0 0 0 0 
62.6762 0 37.6558 0 -1 0 91 110 191 
50.0127 0 38.1282 0 -1 0 0 0 0 
51.6426 0 38.6367 0 -1 0 0 0 0 
62.1863 0 37.9618 0 -1 0 0 0 0 
53.9815 0 40.4685 0 -1 0 0 0 0 
56.6062 0 40.4885 0 -1 0 0 0 0 
46.8527 0 39.3188 0 -1 0 0 0 0 
63.226 0 40.7379 0 -1 0 92 143 74 
58.112 0 39.4202 0 -1 0 0 0 0 
56.5044 0 39.1357 0 -1 0 0 0 0 
59.5931 0 39.4313 0 -1 0 0 0 0 
57.328 0 40.3852 0 -1 0 0 0 0 
60.0926 0 29.9405 0 -1 0 91 110 191 
62.1259 0 29.4058 0 -1 0 91 110 191 
54.6444 0 31.9868 0 -1 0 0 0 0 
58.9124 0 29.895 0 -1 0 91 110 191 
53.6917 0 33.0174 0 -1 0 0 0 0 
45.4105 0 36.4208 0 -1 0 0 0 0 
51.8453 0 32.3747 0 -1 0 0 0 0 
43.5533 0 36.7671 0 -1 0 0 0 0 
62.6349 0 31.5999 0 -1 0 91 110 191 
60.4272 0 30.9353 0 -1 0 91 110 191 
58.6141 0 31.1062 0 -1 0 91 110 191 
47.7495 0 35.7789 0 -1 0 0 0 0 
52.616 0 34.1557 0 -1 0 0 0 0 
62.1698 0 31.4978 0 -1 0 91 110 191 
53.6148 0 33.3987 0 -1 0 0 0 0 
57.1561 0 33.4562 0 -1 0 0 0 0 
54.9751 0 35.4353 0 -1 0 0 0 0 
55.6135 0 34.3161 0 -1 0 0 0 0 
53.6443 0 35.4092 0 -1 0 0 0 0 
45.9277 0 37.1067 0 -1 0 0 0 0 
50.1476 0 36.9029 0 -1 0 0 0 0 
46.4526 0 37.5954 0 -1 0 0 0 0 
49.4215 0 36.2475 0 -1 0 0 0 0 
63.242 0 33.6266 0 -1 0 91 110 191 
53.9353 0 26.4946 0 -1 0 0 0 0 
51.3914 0 28.0641 0 -1 0 0 0 0 
45.8027 0 32.656 0 -1 0 0 0 0 
43.5183 0 35.1752 0 -1 0 0 0 0 
57.1842 0 22.1171 0 -1 0 91 110 191 
46.3021 0 32.5945 0 -1 0 0 0 0 
52.0905 0 27.3065 0 -1 0 0 0 0 
48.334 0 30.0748 0 -1 0 0 0 0 
56.3546 0 25.2621 0 -1 0 91 110 191 
54.7346 0 27.9864 0 -1 0 0 0 0 
52.423 0 29.8593 0 -1 0 0 0 0 
47.7666 0 32.8607 0 -1 0 0 0 0 
58.5624 0 25.2735 0 -1 0 91 110 191 
47.1097 0 32.6956 0 -1 0 0 0 0 
57.612 0 24.03 0 -1 0 91 110 191 
43.6928 0 35.6342 0 -1 0 0 0 0 
59.3697 0 27.0856 0 -1 0 91 110 191 
58.5013 0 26.7422 0 -1 0 91 110 191 
54.2967 0 30.0953 0 -1 0 0 0 0 
60.3593 0 27.1128 0 -1 0 91 110 191 
47.3414 0 34.2227 0 -1 0 0 0 0 
54.8239 0 29.4602 0 -1 0 0 0 0 
48.5627 0 33.3052 0 -1 0 0 0 0 
45.8286 0 34.6814 0 -1 0 0 0 0 
47.6049 0 24.5911 0 -1 0 0 0 0 
44.1343 0 31.2768 0 -1 0 0 0 0 
48.3993 0 21.7719 0 -1 0 0 0 0 
45.3284 0 27.7847 0 -1 0 0 0 0 
52.5231 0 18.7429 0 -1 0 91 110 191 
46.8052 0 26.2377 0 -1 0 0 0 0 
50.0638 0 20.3881 0 -1 0 0 0 0 
46.3128 0 27.4745 0 -1 0 0 0 0 
47.6884 0 27.7712 0 -1 0 0 0 0 
47.98 0 28.056 0 -1 0 0 0 0 
40.4183 0 37.3968 0 -1 0 0 0 0 
44.6031 0 31.9583 0 -1 0 0 0 0 
44.3758 0 32.0694 0 -1 0 0 0 0 
50.0503 0 23.5654 0 -1 0 0 0 0 
54.9178 0 19.6599 0 -1 0 91 110 191 
52.8856 0 21.0689 0 -1 0 91 110 191 
53.0703 0 23.4383 0 -1 0 0 0 0 
51.7125 0 25.6548 0 -1 0 0 0 0 
51.7384 0 25.6831 0 -1 0 0 0 0 
55.2062 0 22.4106 0 -1 0 91 110 191 
53.4714 0 22.3748 0 -1 0 91 110 191 
45.2589 0 32.0914 0 -1 0 0 0 0 
55.3393 0 20.2672 0 -1 0 91 110 191 
55.6143 0 20.5997 0 -1 0 91 110 191 
42.3419 0 27.6071 0 -1 0 0 0 0 
43.6501 0 18.5517 0 -1 0 0 0 0 
44.3831 0 21.6232 0 -1 0 0 0 0 
42.9091 0 23.9422 0 -1 0 0 0 0 
42.9283 0 26.0618 0 -1 0 0 0 0 
43.9032 0 21.3673 0 -1 0 0 0 0 
42.4176 0 25.6876 0 -1 0 0 0 0 
40.1876 0 34.2166 0 -1 0 0 0 0 
47.6041 0 18.2957 0 -1 0 0 0 0 
46.0001 0 18.9388 0 -1 0 0 0 0 
44.6684 0 21.9911 0 -1 0 0 0 0 
46.7398 0 16.0814 0 -1 0 0 0 0 
47.6135 0 15.538 0 -1 0 0 0 0 
42.6292 0 28.1852 0 -1 0 0 0 0 
44.2425 0 26.592 0 -1 0 0 0 0 
45.9805 0 20.4374 0 -1 0 0 0 0 
48.6457 0 17.1278 0 -1 0 0 0 0 
47.7909 0 21.2472 0 -1 0 0 0 0 
43.5743 0 28.8519 0 -1 0 0 0 0 
48.0001 0 18.8896 0 -1 0 0 0 0 
43.0738 0 29.8231 0 -1 0 0 0 0 
49.3737 0 16.439 0 -1 0 0 0 0 
48.2083 0 19.4826 0 -1 0 0 0 0 
44.7496 0 25.7538 0 -1 0 0 0 0 
38.0356 0 21.994 0 -1 0 0 0 0 
37.8678 0 23.7702 0 -1 0 0 0 0 
38.5541 0 27.8795 0 -1 0 0 0 0 
36.78 0 15.14 0 -1 0 175 136 138 
37.5898 0 22.1332 0 -1 0 0 0 0 
39.0806 0 38.2608 0 -1 0 0 0 0 
38.2128 0 24.7884 0 -1 0 0 0 0 
38.8788 0 21.1765 0 -1 0 0 0 0 
39.5567 0 19.2982 0 -1 -0 0 0 0 
39.9173 0 25.3567 0 -1 -0 0 0 0 
39.4981 0 24.9084 0 -1 -0 0 0 0 
39.2776 0 28.8079 0 -1 -0 0 0 0 
39.245 0 23.9359 0 -1 -0 0 0 0 
39.7453 0 23.8953 0 -1 -0 0 0 0 
39.2325 0 29.9308 0 -1 -0 0 0 0 
39.7441 0 17.3034 0 -1 -0 175 136 138 
41.1635 0 19.0568 0 -1 0 0 0 0 
41.9725 0 14.3289 0 -1 0 175 136 138 
42.4644 0 14.3877 0 -1 0 175 136 138 
42.5987 0 17.8229 0 -1 0 0 0 0 
40.6477 0 27.0464 0 -1 0 0 0 0 
43.4576 0 15.2156 0 -1 0 175 136 138 
40.5111 0 27.3788 0 -1 0 0 0 0 
42.0558 0 23.9727 0 -1 0 0 0 0 
31.095 0 17.49 0 -1 0 175 136 138 
33.5574 0 24.0679 0 -1 0 175 136 138 
32.906 0 20.5343 0 -1 0 0 0 0 
34.0928 0 26.6211 0 -1 0 0 0 0 
32.493 0 21.7295 0 -1 0 0 0 0 
36.9362 0 33.7976 0 -1 0 0 0 0 
32.5199 0 18.9682 0 -1 0 175 136 138 
31.6093 0 19.8248 0 -1 0 175 136 138 
32.5763 0 15.1807 0 -1 0 175 136 138 
33.905 0 17.5912 0 -1 0 175 136 138 
38.062 0 34.8947 0 -1 0 0 0 0 
35.0452 0 19.1178 0 -1 0 175 136 138 
36.8541 0 30.3066 0 -1 0 0 0 0 
32.5756 0 15.8948 0 -1 0 175 136 138 
33.9888 0 21.4032 0 -1 0 0 0 0 
35.4455 0 25.3129 0 -1 0 175 136 138 
35.7426 0 18.2077 0 -1 0 175 136 138 
36.2833 0 24.3557 0 -1 0 0 0 0 
36.7943 0 17.6454 0 -1 0 175 136 138 
38.7432 0 36.5366 0 -1 0 0 0 0 
37.8207 0 32.4605 0 -1 0 0 0 0 
38.8133 0 36.4298 0 -1 0 0 0 0 
35.5471 0 18.4142 0 -1 0 175 136 138 
36.001 0 17.2982 0 -1 0 175 136 138 
28.6596 0 25.9098 0 -1 0 0 0 0 
28.9355 0 25.2498 0 -1 0 0 0 0 
27.8351 0 22.6007 0 -1 0 0 0 0 
24.9086 0 21.2821 0 -1 0 175 136 138 
31.291 0 27.5287 0 -1 0 0 0 0 
32.8248 0 31.1077 0 -1 0 0 0 0 
31.4501 0 28.0287 0 -1 0 0 0 0 
32.5445 0 30.2998 0 -1 0 0 0 0 
32.184 0 28.1573 0 -1 0 0 0 0 
28.316 0 19.0472 0 -1 0 175 136 138 
30.9082 0 26.7669 0 -1 0 0 0 0 
26.274 0 19.5436 0 -1 0 175 136 138 
36.1857 0 34.3176 0 -1 0 0 0 0 
28.133 0 21.049 0 -1 0 175 136 138 
27.3774 0 17.9312 0 -1 0 175 136 138 
29.25 0 21.1935 0 -1 0 175 136 138 
32.1304 0 24.2335 0 -1 0 175 136 138 
33.9567 0 28.9573 0 -1 0 0 0 0 
32.5525 0 25.1364 0 -1 0 175 136 138 
32.3096 0 22.9569 0 -1 0 175 136 138 
31.343 0 23.0168 0 -1 0 175 136 138 
30.619 0 19.7841 0 -1 0 175 136 138 
29.1574 0 20.1905 0 -1 0 175 136 138 
33.317 0 27.4097 0 -1 0 0 0 0 
34.5504 0 35.8911 0 -1 0 0 0 0 
22.9103 0 27.4012 0 -1 0 0 0 0 
21.949 0 25.6278 0 -1 0 0 0 0 
20.6871 0 25.8926 0 -1 0 0 0 0 
21.2822 0 24.9824 0 -1 0 0 0 0 
18.5425 0 24.6963 0 -1 0 175 136 138 
31.7189 0 33.6811 0 -1 0 0 0 0 
20.0268 0 25.6318 0 -1 0 0 0 0 
28.5247 0 29.7825 0 -1 0 0 0 0 
26.4145 0 26.8046 0 -1 0 0 0 0 
28.8605 0 30.3755 0 -1 0 0 0 0 
33.8418 0 34.4825 0 -1 0 0 0 0 
27.2839 0 27.8039 0 -1 0 0 0 0 
19.8603 0 22.941 0 -1 0 175 136 138 
25.7435 0 26.1234 0 -1 0 0 0 0 
27.6223 0 28.2202 0 -1 0 0 0 0 
28.8138 0 28.5848 0 -1 0 0 0 0 
22.0716 0 20.9651 0 -1 0 175 136 138 
31.3012 0 31.1538 0 -1 0 0 0 0 
24.4427 0 23.8904 0 -1 0 0 0 0 
28.6675 0 28.64 0 -1 0 0 0 0 
28.3771 0 27.3637 0 -1 0 0 0 0 
22.5523 0 20.1025 0 -1 0 175 136 138 
23.4732 0 23.0583 0 -1 0 175 136 138 
28.2665 0 35.4679 0 -1 0 0 0 0 
27.4473 0 34.5303 0 -1 0 0 0 0 
20.8388 0 32.5498 0 -1 0 0 0 0 
30.0694 0 36.065 0 -1 0 0 0 0 
18.6069 0 31.8645 0 -1 0 0 0 0 
15.9932 0 31.7923 0 -1 0 0 0 0 
32.7288 0 37.0901 0 -1 0 0 0 0 
24.8932 0 34.5519 0 -1 0 0 0 0 
29.0801 0 34.626 0 -1 0 0 0 0 
28.5913 0 33.693 0 -1 0 0 0 0 
20.0659 0 29.0528 0 -1 0 0 0 0 
20.3623 0 31.323 0 -1 0 0 0 0 
33.6789 0 36.5828 0 -1 0 0 0 0 
16.6354 0 29.7294 0 -1 0 0 0 0 
25.9731 0 32.7919 0 -1 0 0 0 0 
20.8977 0 31.0516 0 -1 0 0 0 0 
26.3414 0 31.2907 0 -1 0 90 148 167 
35.1838 0 36.8253 0 -1 0 0 0 0 
21.2874 0 27.6546 0 -1 0 0 0 0 
21.3535 0 29.1651 0 -1 0 0 0 0 
20.2564 0 27.6079 0 -1 0 0 0 0 
17.9622 0 26.6058 0 -1 0 0 0 0 
24.0455 0 29.8221 0 -1 0 0 0 0 
21.3623 0 28.1425 0 -1 0 0 0 0 
19.9465 0 39.0095 0 -1 0 0 0 0 
16.3358 0 37.5391 0 -1 0 0 0 0 
25.55 0 38.5595 0 -1 0 0 0 0 
27.4173 0 38.4251 0 -1 0 0 0 0 
18.9469 0 37.5771 0 -1 0 0 0 0 
24.0354 0 38.8323 0 -1 0 0 0 0 
15.7927 0 38.7575 0 -1 0 0 0 0 
19.4443 0 39.0121 0 -1 0 0 0 0 
30.8427 0 38.2307 0 -1 0 0 0 0 
24.0674 0 36.1761 0 -1 0 0 0 0 
17.1472 0 35.4559 0 -1 0 0 0 0 
30.8325 0 37.7612 0 -1 0 0 0 0 
16.8022 0 36.3826 0 -1 0 0 0 0 
19.5532 0 35.4346 0 -1 0 0 0 0 
31.0181 0 38.2008 0 -1 0 0 0 0 
22.7596 0 36.1725 0 -1 0 0 0 0 
15.2628 0 33.3294 0 -1 0 0 0 0 
21.9829 0 34.1303 0 -1 0 0 0 0 
18.2868 0 34.164 0 -1 0 0 0 0 
33.271 0 37.796 0 -1 0 0 0 0 
18.8982 0 34.1985 0 -1 0 0 0 0 
20.9555 0 34.7676 0 -1 0 0 0 0 
18.1774 0 33.807 0 -1 0 0 0 0 
18.7625 0 34.7143 0 -1 0 0 0 0 
32.4212 0 40.6379 0 -1 -0 0 0 0 
26.516 0 42.6023 0 -1 -0 0 0 0 
25.5034 0 42.6995 0 -1 -0 0 0 0 
29.1302 0 41.3772 0 -1 -0 0 0 0 
27.1066 0 42.0127 0 -1 -0 0 0 0 
25.3742 0 41.9647 0 -1 -0 0 0 0 
23.6713 0 43.3707 0 -1 -0 0 0 0 
16.7512 0 45.7358 0 -1 -0 78 161 166 
18.0027 0 43.1431 0 -1 0 0 0 0 
19.5262 0 42.0668 0 -1 0 0 0 0 
14.7363 0 42.5725 0 -1 0 0 0 0 
32.7768 0 39.9281 0 -1 0 0 0 0 
31.0105 0 39.9744 0 -1 0 0 0 0 
15.2437 0 42.3914 0 -1 0 0 0 0 
19.7179 0 41.2137 0 -1 0 0 0 0 
19.0193 0 43.0886 0 -1 0 0 0 0 
25.0106 0 39.2593 -0 -1 0 0 0 0 
14.7797 0 40.4944 -0 -1 0 0 0 0 
30.5907 0 39.3173 -0 -1 0 0 0 0 
19.4319 0 39.5439 -0 -1 0 0 0 0 
31.4332 0 39.7367 -0 -1 0 0 0 0 
22.3682 0 39.152 -0 -1 0 0 0 0 
25.6519 0 39.6439 -0 -1 0 0 0 0 
31.3999 0 39.5615 -0 -1 0 0 0 0 
32.5054 0 42.7611 0 -1 -0 0 0 0 
32.0562 0 43.3091 0 -1 -0 0 0 0 
19.4325 0 51.3571 0 -1 -0 78 161 166 
36.2108 0 40.965 0 -1 -0 0 0 0 
24.9712 0 46.9014 0 -1 -0 78 161 166 
21.0812 0 48.9193 0 -1 -0 78 161 166 
19.1123 0 52.1702 0 -1 -0 78 161 166 
22.3977 0 49.0472 0 -1 -0 0 0 0 
18.8939 0 49.8316 0 -1 0 78 161 166 
17.9141 0 48.5055 0 -1 0 78 161 166 
22.3363 0 47.4931 0 -1 0 78 161 166 
19.5944 0 47.8394 0 -1 0 78 161 166 
18.3392 0 48.0127 0 -1 0 78 161 166 
19.3002 0 48.6775 0 -1 0 78 161 166 
30.1871 0 43.1778 0 -1 0 0 0 0 
26.6897 0 44.9922 0 -1 0 78 161 166 
22.4784 0 45.8277 0 -1 0 78 161 166 
19.3138 0 45.6868 0 -1 0 0 0 0 
27.9626 0 42.9498 0 -1 0 0 0 0 
31.5335 0 41.4504 0 -1 0 0 0 0 
18.0382 0 45.6102 0 -1 0 78 161 166 
17.11 0 45.9707 0 -1 0 78 161 166 
17.4332 0 47.1578 0 -1 0 78 161 166 
32.3767 0 41.7089 0 -1 0 0 0 0 
22.3129 0 45.6921 0 -1 0 0 0 0 
24.0533 0 54.2404 0 -1 -0 78 161 166 
36.2091 0 42.2652 0 -1 -0 0 0 0 
22.7864 0 57.9047 0 -1 -0 78 161 166 
23.6085 0 56.2302 0 -1 -0 78 161 166 
27.0293 0 51.774 0 -1 -0 0 0 0 
36.373 0 42.4579 0 -1 -0 0 0 0 
24.4741 0 56.0444 0 -1 -0 78 161 166 
35.1449 0 43.376 0 -1 -0 0 0 0 
23.1767 0 52.2748 0 -1 0 0 0 0 
23.6329 0 52.9258 0 -1 0 0 0 0 
33.3845 0 44.3167 0 -1 0 0 0 0 
20.8881 0 54.6129 0 -1 0 78 161 166 
34.8019 0 43.2192 0 -1 0 0 0 0 
25.8183 0 50.2639 0 -1 0 0 0 0 
21.7439 0 54.3349 0 -1 0 78 161 166 
34.7849 0 43.0153 0 -1 0 0 0 0 
27.5603 0 47.9636 0 -1 0 0 0 0 
21.343 0 53.2992 0 -1 0 78 161 166 
28.7872 0 46.8792 0 -1 0 0 0 0 
22.8733 0 52.2033 0 -1 0 78 161 166 
34.2284 0 42.5046 0 -1 0 0 0 0 
26.7916 0 48.4603 0 -1 0 78 161 166 
22.237 0 52.0196 0 -1 0 78 161 166 
36.0566 0 41.3891 0 -1 0 0 0 0 
28.2985 0 60.302 0 -1 -0 88 167 95 
31.0408 0 57.1665 0 -1 -0 0 0 0 
32.353 0 52.22 0 -1 -0 0 0 0 
30.2998 0 55.7847 0 -1 -0 0 0 0 
32.1139 0 52.4056 0 -1 -0 0 0 0 
32.4904 0 54.9469 0 -1 -0 0 0 0 
33.0802 0 53.1784 0 -1 -0 0 0 0 
36.4983 0 44.9263 0 -1 -0 0 0 0 
31.8055 0 51.6121 0 -1 0 0 0 0 
33.7107 0 48.3789 0 -1 0 0 0 0 
30.0779 0 52.9995 0 -1 0 0 0 0 
26.736 0 59.7463 0 -1 0 88 167 95 
28.1621 0 57.6917 0 -1 0 0 0 0 
28.0965 0 56.2121 0 -1 0 0 0 0 
30.1587 0 54.3183 0 -1 0 0 0 0 
28.783 0 56.7816 0 -1 0 0 0 0 
26.9091 0 54.2328 0 -1 0 0 0 0 
25.1876 0 58.6888 0 -1 0 78 161 166 
32.4605 0 48.2308 0 -1 0 0 0 0 
25.7421 0 58.1275 0 -1 0 78 161 166 
36.4182 0 42.9138 0 -1 0 0 0 0 
29.6426 0 52.5318 0 -1 0 0 0 0 
24.4589 0 58.5633 0 -1 0 78 161 166 
31.7448 0 48.956 0 -1 0 0 0 0 
38.7014 0 41.2626 0 -1 -0 0 0 0 
37.1664 0 56.3002 0 -1 -0 0 0 0 
37.0373 0 51.5839 0 -1 -0 0 0 0 
38.5516 0 44.825 0 -1 -0 0 0 0 
38.1418 0 46.6009 0 -1 -0 0 0 0 
38.1012 0 46.8887 0 -1 -0 0 0 0 
35.7075 0 58.3547 0 -1 -0 0 0 0 
35.9912 0 62.1742 0 -1 -0 88 167 95 
33.1212 0 61.4738 0 -1 0 88 167 95 
33.6808 0 61.9762 0 -1 0 88 167 95 
36.2685 0 53.1469 0 -1 0 0 0 0 
33.7701 0 58.3352 0 -1 0 0 0 0 
35.1349 0 53.0912 0 -1 0 0 0 0 
32.7405 0 61.2003 0 -1 0 88 167 95 
34.5446 0 56.0592 0 -1 0 0 0 0 
35.9989 0 54.5928 0 -1 0 0 0 0 
33.149 0 58.0962 0 -1 0 0 0 0 
33.1562 0 57.1577 0 -1 0 0 0 0 
30.9277 0 62.2065 0 -1 0 88 167 95 
34.4501 0 53.0854 0 -1 0 0 0 0 
33.4807 0 57.3683 0 -1 0 0 0 0 
31.316 0 61.9629 0 -1 0 88 167 95 
30.9184 0 61.4697 0 -1 0 88 167 95 
35.7565 0 49.8592 0 -1 0 0 0 0 
30.4874 2.2994 66.6873 -0.280084 -0.439378 0.853522 0 0 0 
25.361 2.38346 64.5705 -0.430777 -0.439452 0.788234 0 0 0 
20.5361 1.97477 61.0067 -0.603374 -0.439041 0.66572 0 0 0 
15.6119 2.02439 55.6364 -0.721656 -0.439041 0.535216 0 0 0 
13.6447 2.10753 52.54 -0.797204 -0.439442 0.413952 0 0 0 
11.4388 2.1722 47.1043 -0.871541 -0.439041 0.21831 0 0 0 
10.4294 2.14657 41.6162 -0.897385 -0.439041 0.0440856 0 0 0 
10.3072 2.43251 36.2775 -0.892571 -0.439431 -0.101083 0 0 0 
11.6663 2.3729 30.0979 -0.845946 -0.439041 -0.302685 0 0 0 
14.7305 2.07229 23.9058 -0.770641 -0.439041 -0.461905 0 0 0 
16.8219 2.49304 20.6108 -0.684451 -0.439415 -0.581756 0 0 0 
20.6331 2.05144 17.0953 -0.596221 -0.439206 -0.672026 0 0 0 
25.1623 2.50123 13.7175 -0.430777 -0.439452 -0.788234 0 0 0 
30.2136 2.26664 11.6644 -0.280084 -0.439378 -0.853522 0 0 0 
36.2637 1.95569 10.5444 -0.120018 -0.439241 -0.890316 0 0 0 
40.3419 2.04021 10.4188 0.0440856 -0.439041 -0.897385 0 0 0 
46.9402 2.32714 11.3018 0.243603 -0.439398 -0.864631 0 0 0 
52.186 2.36573 13.3337 0.396975 -0.439273 -0.805885 0 0 0 
57.3053 2.41882 16.6096 0.535216 -0.439041 -0.721656 0 0 0 
61.116 2.37065 20.3419 0.684451 -0.439415 -0.581756 0 0 0 
64.4764 2.33191 25.2538 0.778976 -0.439303 -0.447448 0 0 0 
66.6467 2.0654 30.734 0.845946 -0.439041 -0.302684 0 0 0 
67.8701 2.35683 36.0082 0.892571 -0.439431 -0.101083 0 0 0 
67.8943 2.274 41.4864 0.896106 -0.439331 0.0631132 0 0 0 
66.8031 2.10173 46.9747 0.871541 -0.439041 0.218309 0 0 0 
64.6917 2.24945 52.5148 0.797204 -0.439442 0.413952 0 0 0 
62.0157 2.54936 56.9299 0.708548 -0.439356 0.552201 0 0 0 
58.1396 2.24218 60.8062 0.596221 -0.439206 0.672026 0 0 0 
53.0649 2.3718 64.4651 0.430777 -0.439452 0.788234 0 0 0 
48.3184 2.38713 66.5484 0.280084 -0.439378 0.853522 0 0 0 
35.0772 2.13632 67.6132 -0.131833 -0.439041 0.888742 0 0 0 
41.6772 2.24162 67.8591 0.0440856 -0.439041 0.897385 0 0 0 
44.6445 1.73498 67.1472 0.118899 -0.585985 0.801552 0 0 0 
48.1883 1.85425 66.2733 0.272989 -0.585985 0.762954 0 0 0 
56.3978 1.4252 61.5534 0.482707 -0.585986 0.650856 0 0 0 
60.2938 1.48207 57.9768 0.600409 -0.585984 0.544179 0 0 0 
63.0464 1.84717 54.8636 0.695036 -0.585986 0.416589 0 0 0 
65.7206 1.466 48.8995 0.762954 -0.585985 0.272989 0 0 0 
67.0203 1.54562 44.5666 0.801552 -0.585985 0.118899 0 0 0 
67.4935 1.4668 39.1055 0.809346 -0.585985 -0.039761 0 0 0 
66.9162 1.46154 33.4715 0.786038 -0.585985 -0.196892 0 0 0 
65.1926 1.4025 28.0735 0.732522 -0.585985 -0.346458 0 0 0 
62.6322 1.74898 22.9087 0.650856 -0.585986 -0.482707 0 0 0 
57.8562 1.43977 17.8832 0.544179 -0.585984 -0.600409 0 0 0 
53.8897 1.67793 14.7576 0.416589 -0.585986 -0.695036 0 0 0 
49.8984 1.81446 12.6142 0.272989 -0.585985 -0.762954 0 0 0 
43.7735 1.73022 10.9721 0.118899 -0.585985 -0.801552 0 0 0 
37.8146 1.45005 10.8271 -0.039761 -0.585985 -0.809346 0 0 0 
32.0617 1.7531 11.4646 -0.196892 -0.585986 -0.786037 0 0 0 
27.1264 1.85907 13.1351 -0.346457 -0.585986 -0.732522 0 0 0 
21.3917 1.63486 16.8406 -0.482708 -0.585985 -0.650857 0 0 0 
17.2395 1.70031 20.8184 -0.600409 -0.585985 -0.544179 0 0 0 
14.8882 1.82561 23.9297 -0.695036 -0.585986 -0.416588 0 0 0 
11.7199 1.88567 30.693 -0.762953 -0.585986 -0.272989 0 0 0 
10.7326 1.81505 35.6681 -0.801551 -0.585986 -0.118899 0 0 0 
10.6981 1.67933 41.1843 -0.809345 -0.585986 0.0397605 0 0 0 
11.7452 1.64508 46.9823 -0.786037 -0.585986 0.196892 0 0 0 
13.6475 1.80409 52.1089 -0.732522 -0.585986 0.346457 0 0 0 
16.7445 1.82025 56.9488 -0.650857 -0.585985 0.482708 0 0 0 
20.2399 1.64693 60.4291 -0.544179 -0.585985 0.600409 0 0 0 
25.0297 1.88111 64.0629 -0.416588 -0.585986 0.695036 0 0 0 
30.8828 1.398 66.2184 -0.272989 -0.585986 0.762953 0 0 0 
36.3854 1.86652 67.6493 -0.0397609 -0.585986 0.809345 0 0 0 
42.2376 1.18879 67.045 0.102468 -0.715766 0.690782 0 0 0 
48.3939 0.947604 65.3631 0.235264 -0.715766 0.657518 0 0 0 
52.664 1.13222 63.6729 0.359019 -0.715766 0.598987 0 0 0 
57.6312 1.06431 60.0687 0.468977 -0.715766 0.517435 0 0 0 
62.057 0.953547 54.9275 0.560912 -0.715766 0.416 0 0 0 
63.9692 1.23363 52.3656 0.631293 -0.715765 0.298579 0 0 0 
66.2427 1.17614 46.3532 0.677412 -0.715766 0.169683 0 0 0 
67.207 1.24305 40.7992 0.697498 -0.715767 0.0342662 0 0 0 
67 1.26706 35.1573 0.690782 -0.715766 -0.102468 0 0 0 
65.3941 1.11946 29.4147 0.657517 -0.715767 -0.235263 0 0 0 
63.8705 1.34221 25.4919 0.598986 -0.715766 -0.359019 0 0 0 
60.1487 1.34931 20.2671 0.517435 -0.715767 -0.468976 0 0 0 
55.1614 1.32571 15.8865 0.416 -0.715766 -0.560912 0 0 0 
51.8462 1.33088 13.9199 0.298579 -0.715767 -0.631291 0 0 0 
43.8477 1.20274 11.4244 0.102468 -0.715766 -0.690782 0 0 0 
38.3771 1.14625 11.0915 -0.0342661 -0.715767 -0.697498 0 0 0 
33.0192 1.12797 11.7708 -0.169683 -0.715766 -0.677412 0 0 0 
26.6075 0.958671 14.2432 -0.298579 -0.715767 -0.631292 0 0 0 
23.4924 1.13065 15.8322 -0.416 -0.715766 -0.560912 0 0 0 
18.6852 0.950918 20.2254 -0.517435 -0.715767 -0.468977 0 0 0 
15.5175 1.2279 23.8128 -0.598986 -0.715766 -0.359019 0 0 0 
12.4486 1.20247 30.2865 -0.657518 -0.715766 -0.235264 0 0 0 
11.3024 1.26094 34.813 -0.690782 -0.715766 -0.102468 0 0 0 
11.145 1.18108 41.6835 -0.697499 -0.715766 0.0342662 0 0 0 
11.642 1.3027 45.4489 -0.677412 -0.715766 0.169683 0 0 0 
13.9722 1.18546 51.6083 -0.631292 -0.715766 0.298579 0 0 0 
16.6434 1.21746 55.9957 -0.560912 -0.715766 0.416 0 0 0 
20.1468 1.30705 59.9812 -0.468977 -0.715766 0.517436 0 0 0 
25.4894 1.18177 63.6773 -0.359019 -0.715766 0.598987 0 0 0 
31.4427 0.965723 65.9079 -0.169683 -0.715766 0.677412 0 0 0 
36.8207 1.29842 67.2331 -0.0342661 -0.715766 0.697499 0 0 0 
43.1614 0.663189 66.257 0.0830167 -0.824558 0.559653 0 0 0 
48.362 0.570065 64.8091 0.190604 -0.824559 0.532704 0 0 0 
52.5747 0.802944 63.2808 0.290868 -0.824558 0.485283 0 0 0 
57.9057 0.826303 59.4439 0.379953 -0.824558 0.419213 0 0 0 
62.0226 0.837176 54.7234 0.454437 -0.824558 0.337033 0 0 0 
64.0307 0.828625 51.186 0.511456 -0.824558 0.241901 0 0 0 
66.0188 0.644811 44.5401 0.548821 -0.824559 0.137472 0 0 0 
66.5831 0.693557 40.1441 0.565096 -0.824558 0.0277615 0 0 0 
65.4377 0.547771 31.9672 0.548821 -0.824559 -0.137472 0 0 0 
63.7033 0.551879 27.3101 0.511456 -0.824558 -0.241901 0 0 0 
60.5163 0.535255 22.2292 0.454437 -0.824558 -0.337033 0 0 0 
58.6751 0.794094 19.5618 0.379953 -0.824558 -0.419214 0 0 0 
52.2911 0.818616 14.7675 0.290868 -0.824558 -0.485283 0 0 0 
47.929 0.790956 12.9391 0.190604 -0.824559 -0.532704 0 0 0 
43.3747 0.878176 11.7029 0.0830166 -0.824558 -0.559653 0 0 0 
38.4661 0.866364 11.3918 -0.0277615 -0.824558 -0.565095 0 0 0 
31.8768 0.788179 12.4687 -0.137472 -0.824559 -0.548821 0 0 0 
25.6746 0.558347 15.3772 -0.290868 -0.824558 -0.485283 0 0 0 
20.886 0.548121 18.8528 -0.379952 -0.824558 -0.419213 0 0 0 
17.119 0.650503 22.7693 -0.454436 -0.824558 -0.337033 0 0 0 
14.4718 0.669157 27.0581 -0.511456 -0.824558 -0.241901 0 0 0 
12.7524 0.584967 31.9631 -0.548821 -0.824559 -0.137472 0 0 0 
11.4806 0.853211 37.0482 -0.565096 -0.824558 -0.0277615 0 0 0 
11.6798 0.824421 42.6853 -0.559653 -0.824559 0.0830166 0 0 0 
13.7837 0.573455 49.3486 -0.532704 -0.824558 0.190604 0 0 0 
16.4319 0.535735 54.266 -0.485283 -0.824558 0.290868 0 0 0 
19.8576 0.546104 58.4561 -0.379953 -0.824558 0.419214 0 0 0 
24.7516 0.680751 62.5226 -0.290868 -0.824558 0.485283 0 0 0 
28.8586 0.532928 64.385 -0.190604 -0.824558 0.532704 0 0 0 
34.4223 0.681814 66.1863 -0.0830166 -0.824559 0.559653 0 0 0 
39.2514 0.592601 66.4797 0.0277617 -0.824558 0.565096 0 0 0 
46.3115 0.462246 65.2585 0.101204 -0.909131 0.404028 0 0 0 
51.415 0.374371 63.0742 0.178081 -0.909131 0.376521 0 0 0 
55.0554 0.489892 61.1202 0.248115 -0.909131 0.334544 0 0 0 
60.0944 0.31281 55.7896 0.334544 -0.909131 0.248115 0 0 0 
62.8663 0.287408 51.4106 0.376521 -0.909131 0.178081 0 0 0 
64.9798 0.38917 46.7679 0.404028 -0.909131 0.101204 0 0 0 
66.0459 0.366858 39.1295 0.416009 -0.909131 0.0204374 0 0 0 
66.1142 0.482226 36.099 0.412003 -0.909131 -0.0611149 0 0 0 
63.9959 0.349461 28.9292 0.392163 -0.909131 -0.140318 0 0 0 
61.1223 0.277981 23.969 0.334545 -0.909131 -0.248115 0 0 0 
56.8661 0.310029 19.0787 0.279711 -0.909131 -0.308614 0 0 0 
53.9142 0.425499 16.4872 0.214129 -0.909131 -0.357253 0 0 0 
47.4042 0.284322 13.7162 0.140318 -0.909131 -0.392163 0 0 0 
42.2069 0.284826 12.5754 0.0611149 -0.909131 -0.412003 0 0 0 
37.4528 0.342356 12.3343 -0.0204375 -0.909131 -0.41601 0 0 0 
32.5328 0.436552 12.8941 -0.101204 -0.909131 -0.404028 0 0 0 
24.8909 0.293563 16.4873 -0.214129 -0.909131 -0.357253 0 0 0 
21.8657 0.275546 18.7391 -0.279711 -0.909131 -0.308614 0 0 0 
17.9634 0.331465 22.6393 -0.334544 -0.909131 -0.248115 0 0 0 
14.2767 0.499621 28.0811 -0.376521 -0.909131 -0.178081 0 0 0 
12.8529 0.469582 32.4006 -0.404029 -0.909131 -0.101204 0 0 0 
12.0561 0.463473 37.7266 -0.416009 -0.909131 -0.0204374 0 0 0 
12.8838 0.404846 45.386 -0.404029 -0.909131 0.101204 0 0 0 
14.3006 0.342383 49.4116 -0.376521 -0.909131 0.178081 0 0 0 
16.8484 0.361425 54.2119 -0.334545 -0.909131 0.248115 0 0 0 
21.1422 0.505009 59.5261 -0.279711 -0.909131 0.308614 0 0 0 
25.473 0.425227 62.4417 -0.214129 -0.909131 0.357253 0 0 0 
29.9807 0.403151 64.4966 -0.140318 -0.909131 0.392163 0 0 0 
35.2402 0.418671 65.8465 -0.0611149 -0.909131 0.412003 0 0 0 
41.7503 0.167683 65.3718 0.0374077 -0.966956 0.252183 0 0 0 
47.6685 0.166646 64.0472 0.0858874 -0.966956 0.240039 0 0 0 
52.2397 0.188301 62.073 0.131066 -0.966956 0.218671 0 0 0 
56.8225 0.208016 58.85 0.171208 -0.966956 0.188899 0 0 0 
60.9725 0.161757 53.8584 0.204771 -0.966956 0.151869 92 143 74 
63.794 0.0757485 47.3528 0.240039 -0.966956 0.0858873 0 0 0 
64.9586 0.144639 43.94 0.252183 -0.966956 0.0374077 0 0 0 
65.5243 0.188289 37.9214 0.254635 -0.966956 -0.0125094 0 0 0 
64.7691 0.231019 32.0725 0.247302 -0.966956 -0.061946 0 0 0 
61.939 0.165001 25.9535 0.218671 -0.966956 -0.131066 0 0 0 
58.7511 0.0750357 22.0645 0.188899 -0.966956 -0.171209 91 110 191 
53.6909 0.0632135 17.6136 0.151869 -0.966956 -0.204771 0 0 0 
49.1921 0.111836 14.97 0.109002 -0.966956 -0.230465 0 0 0 
44.7172 0.231798 13.1084 0.061946 -0.966956 -0.247302 0 0 0 
39.051 0.178216 12.7035 -0.0125095 -0.966956 -0.254635 0 0 0 
32.8327 0.0669554 13.927 -0.0619459 -0.966956 -0.247302 0 0 0 
27.2556 0.111916 15.8197 -0.109002 -0.966956 -0.230465 0 0 0 
23.2292 0.227555 17.8201 -0.151869 -0.966956 -0.204771 0 0 0 
20.1084 0.214246 20.6002 -0.1889 -0.966956 -0.171209 0 0 0 
15.5131 0.0958763 28.0461 -0.230465 -0.966956 -0.109002 0 0 0 
13.657 0.198508 31.8572 -0.247302 -0.966956 -0.061946 0 0 0 
12.8424 0.15268 38.1969 -0.254635 -0.966956 -0.0125094 0 0 0 
13.2987 0.141968 43.9542 -0.252183 -0.966956 0.0374077 0 0 0 
14.1029 0.19434 47.7153 -0.240039 -0.966956 0.0858873 0 0 0 
17.8671 0.148506 54.5758 -0.204771 -0.966956 0.151869 0 0 0 
21.9407 0.101099 58.7724 -0.171209 -0.966956 0.188899 0 0 0 
26.6888 0.158616 62.3514 -0.131066 -0.966956 0.218671 0 0 0 
30.5209 0.232716 64.2935 -0.0858874 -0.966956 0.240039 0 0 0 
34.8057 0.200115 65.2456 -0.0374077 -0.966956 0.252183 0 0 0 
41.8041 0.0322951 64.6353 0.0125941 -0.99631 0.0849023 0 0 0 
48.2974 0.0295142 63.0268 0.0289157 -0.99631 0.080814 0 0 0 
51.8644 0.0477926 61.5765 0.0441262 -0.99631 0.07362 0 0 0 
57.3876 0.0447703 57.3508 0.0635969 -0.99631 0.0576409 0 0 0 
60.6003 0.00871872 52.6108 0.0736201 -0.99631 0.0441261 92 143 74 
63.4206 0.0302709 47.2227 0.0808139 -0.99631 0.0289157 0 0 0 
64.4907 0.0266916 42.336 0.0849023 -0.99631 0.0125941 0 0 0 
64.6604 0.0329808 36.5554 0.0849023 -0.99631 -0.0125941 0 0 0 
63.5402 0.0221505 31.6361 0.0808139 -0.99631 -0.0289157 0 0 0 
60.3516 0.0186264 24.9956 0.07362 -0.99631 -0.0441262 0 0 0 
57.214 0.0248056 21.0477 0.0635969 -0.99631 -0.0576409 0 0 0 
52.544 0.0123102 17.5561 0.0441261 -0.99631 -0.0736201 0 0 0 
48.5992 0.00135674 15.6733 0.0289157 -0.99631 -0.080814 0 0 0 
41.915 0.00953746 13.8932 0.0125941 -0.99631 -0.0849023 0 0 0 
36.8394 0.0529745 13.3332 -0.00421157 -0.99631 -0.0857279 0 0 0 
31.4473 0.0186173 14.8159 -0.0289157 -0.99631 -0.0808139 0 0 0 
24.938 0.0468507 17.5459 -0.0441262 -0.99631 -0.07362 0 0 0 
22.2475 0.0468342 19.5985 -0.0576409 -0.99631 -0.0635969 0 0 0 
17.6361 0.0335167 25.0886 -0.0736201 -0.99631 -0.0441261 0 0 0 
15.2137 0.0347148 29.7809 -0.080814 -0.99631 -0.0289157 0 0 0 
13.3303 0.0561884 36.4341 -0.0849023 -0.99631 -0.0125941 0 0 0 
13.8012 0.0120535 41.2503 -0.0857279 -0.99631 0.00421157 0 0 0 
14.4863 0.0422486 46.6908 -0.0808139 -0.99631 0.0289157 0 0 0 
17.5315 0.010633 52.4651 -0.0736199 -0.99631 0.044126 0 0 0 
19.7898 0.0394731 56.0814 -0.0635969 -0.99631 0.0576409 0 0 0 
23.6574 0.0404763 59.6808 -0.0511297 -0.99631 0.0689404 0 0 0 
30.3943 0.0195795 63.0641 -0.0289157 -0.99631 0.080814 0 0 0 
35.4335 0.0174581 64.3118 -0.0125941 -0.99631 0.0849023 0 0 0 
27.7896 73.0151 2.6655 -0.290437 0.20457 -0.934771 0 0 0 
18.4961 72.7859 6.93584 -0.514482 0.218949 -0.829078 0 0 0 
11.2729 72.902 12.9765 -0.705728 0.23225 -0.669334 0 0 0 
6.26307 73.1625 19.6884 -0.864413 0.187448 -0.466533 0 0 0 
2.28311 73.0057 29.0384 -0.954888 0.187444 -0.230335 0 0 0 
0.926918 72.9368 39.2753 -0.982046 0.187452 0.0211348 0 0 0 
2.75094 73.1438 50.6863 -0.944094 0.187446 0.271203 0 0 0 
5.69465 73.1533 57.5507 -0.843543 0.187443 0.50329 0 0 0 
11.1301 72.9342 65.1511 -0.727065 0.187592 0.660443 0 0 0 
17.0429 73.1001 70.2566 -0.546212 0.266469 0.794133 0 0 0 
33.8016 73.1058 76.9331 -0.164975 0.269087 0.948881 0 0 0 
34.9954 72.9683 77.1091 -0.104906 0.187579 0.976631 0 0 0 
45.3077 73.0983 76.7849 0.164975 0.269087 0.948881 0 0 0 
54.8336 72.9389 73.9534 0.401948 0.267865 0.875606 0 0 0 
63.8183 72.9636 68.2741 0.61261 0.265599 0.744424 0 0 0 
69.7739 72.921 61.95 0.783129 0.262278 0.563843 0 0 0 
74.7304 73.1352 52.8283 0.902248 0.257895 0.345598 0 0 0 
76.9293 72.9953 44.6765 0.972772 0.187605 0.136087 0 0 0 
77.1519 73.047 35.6308 0.979498 0.187519 -0.0736214 0 0 0 
75.2343 72.9266 26.6506 0.928786 0.187514 -0.319679 0 0 0 
70.3273 72.8594 17.0359 0.817318 0.187498 -0.544826 0 0 0 
63.9226 73.0567 10.0906 0.652383 0.187485 -0.734334 0 0 0 
55.0639 73.036 4.40075 0.44477 0.187477 -0.875804 0 0 0 
45.799 72.9511 1.49274 0.208061 0.18746 -0.959984 0 0 0 
39.1043 72.9263 0.895851 -0.04226 0.187445 -0.981366 0 0 0 
29.2289 73.0682 2.23144 -0.28927 0.187471 -0.938711 0 0 0 
50.3483 73.5433 2.80978 0.278619 0.343866 -0.896732 0 0 0 
58.5319 73.457 6.394 0.498365 0.343868 -0.795856 0 0 0 
66.6398 73.3259 12.7854 0.685069 0.343863 -0.642214 0 0 0 
72.514 73.4046 20.8593 0.826348 0.343866 -0.445988 0 0 0 
76.08 73.3384 29.9273 0.912836 0.343869 -0.220192 0 0 0 
77.2705 73.232 38.3381 0.938801 0.343867 0.0202036 0 0 0 
76.2567 73.2917 47.7501 0.921465 0.343868 0.180715 0 0 0 
72.6602 73.4656 57.135 0.84477 0.343867 0.410023 0 0 0 
68.5836 73.1713 63.3654 0.712063 0.343866 0.612145 0 0 0 
61.2887 73.2638 70.1315 0.532145 0.343861 0.773681 0 0 0 
50.6051 73.3928 75.4415 0.31694 0.343863 0.883916 0 0 0 
42.5064 73.27 77.0805 0.0807229 0.343867 0.935542 0 0 0 
32.0612 73.3298 76.5526 -0.160848 0.343862 0.925142 0 0 0 
23.4841 73.3872 73.8283 -0.391752 0.343866 0.853397 0 0 0 
15.2391 73.4574 68.7324 -0.596683 0.343863 0.72507 0 0 0 
8.84344 73.54 62.119 -0.76205 0.343867 0.548667 0 0 0 
3.18916 73.514 51.5998 -0.876891 0.343865 0.335886 0 0 0 
1.27707 73.3548 43.3198 -0.933592 0.343859 0.100833 0 0 0 
1.60391 73.4961 32.9129 -0.928386 0.343868 -0.140904 0 0 0 
3.80171 73.3966 24.9046 -0.86163 0.34386 -0.373301 0 0 0 
8.87274 73.4413 16.0409 -0.737739 0.343868 -0.580944 0 0 0 
13.9224 73.3644 10.5801 -0.627325 0.343866 -0.698727 0 0 0 
22.868 73.378 4.67605 -0.428105 0.343863 -0.835754 0 0 0 
31.5721 73.3733 1.80348 -0.200501 0.343864 -0.917364 0 0 0 
42.1214 73.8211 1.36399 0.037473 0.491254 -0.87021 0 0 0 
50.0414 73.614 2.75515 0.258443 0.491248 -0.831795 0 0 0 
59.2058 73.5835 6.87893 0.462276 0.491249 -0.738224 0 0 0 
67.7365 73.6294 14.1413 0.635458 0.491251 -0.595706 0 0 0 
72.9456 73.7558 22.0163 0.766505 0.491253 -0.413691 0 0 0 
75.8221 73.6536 29.4391 0.846733 0.49125 -0.204246 0 0 0 
77.0888 73.6403 38.9815 0.870814 0.491255 0.0187406 0 0 0 
76.0375 73.6659 48.0323 0.837161 0.491251 0.240486 0 0 0 
71.9048 73.8342 58.0402 0.747998 0.491253 0.446284 0 0 0 
66.753 73.6472 65.1823 0.60924 0.491252 0.622493 0 0 0 
57.1426 73.8641 72.3916 0.430086 0.491258 0.757424 0 0 0 
49.6496 73.7478 75.5354 0.222417 0.491252 0.842142 0 0 0 
39.3263 73.791 76.992 0 0.491249 0.871019 0 0 0 
29.2896 73.779 75.7006 -0.222416 0.491256 0.842139 0 0 0 
22.5776 73.7446 73.2254 -0.363382 0.491256 0.791594 0 0 0 
14.1624 73.8235 67.6022 -0.553471 0.491255 0.672561 0 0 0 
7.95664 73.7094 60.7266 -0.706864 0.491254 0.508934 0 0 0 
3.67211 73.6821 52.6145 -0.813386 0.491258 0.311561 0 0 0 
1.32628 73.5847 42.9241 -0.865979 0.491256 0.0935306 0 0 0 
1.90373 73.8455 32.182 -0.861153 0.491256 -0.1307 0 0 0 
4.94025 73.6474 22.5571 -0.799231 0.491253 -0.346267 0 0 0 
8.51515 73.5717 16.5797 -0.684315 0.491251 -0.538874 0 0 0 
16.9776 73.6876 8.31929 -0.524026 0.491249 -0.695752 0 0 0 
25.3141 73.5887 3.73289 -0.328991 0.491248 -0.806499 0 0 0 
33.9069 73.7137 1.56829 -0.112142 0.491258 -0.863765 0 0 0 
43.1256 74.1668 1.73222 0.100429 0.625731 -0.773547 0 0 0 
52.2532 74.1743 3.88326 0.294627 0.625731 -0.722257 0 0 0 
61.3277 74.2009 8.81629 0.46929 0.625731 -0.623079 0 0 0 
68.6339 74.0941 15.7383 0.612836 0.625732 -0.482587 0 0 0 
73.1957 74.1659 23.1993 0.715749 0.625734 -0.310098 0 0 0 
76.3239 74.1111 33.3983 0.771207 0.625732 -0.117049 0 0 0 
76.4655 74.1922 43.2857 0.775531 0.625729 0.0837622 0 0 0 
74.93 73.9883 51.1416 0.728432 0.625728 0.27902 0 0 0 
70.5277 73.9569 60.1327 0.633032 0.625731 0.455775 0 0 0 
62.6071 74.1818 68.4683 0.495662 0.625731 0.602312 0 0 0 
56.1062 74.1954 72.6672 0.325427 0.625732 0.708913 0 0 0 
45.8663 74.0554 76.1991 0.133615 0.625732 0.768509 0 0 0 
38.0515 74.0829 76.7842 0 0.625735 0.780036 0 0 0 
28.3461 74.0919 75.222 -0.199185 0.625734 0.754177 0 0 0 
19.4804 74.089 71.2734 -0.385166 0.625728 0.678315 0 0 0 
13.4332 73.9456 66.8321 -0.545603 0.625733 0.557472 0 0 0 
6.14286 74.0559 57.3938 -0.669871 0.625729 0.39967 0 0 0 
2.94831 73.9131 50.0964 -0.749718 0.625731 0.215367 0 0 0 
1.35089 73.9623 38.918 -0.779862 0.625727 0.0167833 0 0 0 
2.529 73.9269 29.6822 -0.75829 0.625731 -0.182912 0 0 0 
6.61059 74.1451 20.1711 -0.686442 0.625733 -0.370479 0 0 0 
12.343 74.0687 12.6048 -0.569084 0.625731 -0.533484 0 0 0 
17.9891 73.9101 7.75615 -0.41399 0.62573 -0.661116 0 0 0 
26.7877 73.9025 3.36571 -0.231447 0.625735 -0.744908 0 0 0 
37.8891 73.9332 1.35877 -0.0335592 0.625733 -0.779315 0 0 0 
47.2886 74.312 2.57433 0.142731 0.743745 -0.653048 0 0 0 
56.482 74.3015 5.92545 0.304758 0.743743 -0.594953 0 0 0 
64.0955 74.3467 11.2679 0.446577 0.743744 -0.497407 0 0 0 
71.0864 74.411 19.7739 0.558787 0.743744 -0.366882 0 0 0 
74.2097 74.4861 26.5753 0.633945 0.743745 -0.21203 0 0 0 
76.4437 74.3164 36.0145 0.667075 0.743742 -0.0431218 0 0 0 
75.9133 74.489 45.0922 0.65597 0.743743 0.128647 0 0 0 
73.1317 74.3344 54.7602 0.601373 0.743742 0.291887 0 0 0 
67.8907 74.4561 62.8584 0.5069 0.743745 0.435771 0 0 0 
61.6639 74.2464 69.1589 0.378819 0.743745 0.550762 0 0 0 
52.9845 74.3948 73.8377 0.225622 0.743744 0.629238 0 0 0 
43.2801 74.4507 76.1969 0.0574648 0.743746 0.665988 0 0 0 
33.0713 74.4331 75.9444 -0.114503 0.743746 0.658582 0 0 0 
24.5131 74.3148 73.6188 -0.278879 0.743744 0.607513 0 0 0 
16.3786 74.347 68.8544 -0.424763 0.743745 0.516158 0 0 0 
9.29712 74.3314 61.7529 -0.542484 0.743745 0.390582 0 0 0 
4.70663 74.3269 53.9214 -0.624239 0.743742 0.239109 0 0 0 
1.94754 74.372 43.0536 -0.6646 0.743743 0.0717805 0 0 0 
2.17103 74.4014 33.6824 -0.660898 0.743742 -0.100308 0 0 0 
4.33356 74.4858 25.7055 -0.613371 0.743745 -0.265743 0 0 0 
8.95655 74.4684 17.1802 -0.525178 0.743745 -0.413559 0 0 0 
16.1402 74.4194 9.69926 -0.402163 0.743746 -0.533954 0 0 0 
26.1198 74.4605 4.16017 -0.252484 0.743746 -0.618946 0 0 0 
35.2935 74.4733 2.03742 -0.0860639 0.743745 -0.6629 0 0 0 
42.3291 74.497 1.98651 0.0694226 0.842169 -0.534726 0 0 0 
52.6534 74.6046 4.60464 0.203665 0.842169 -0.499271 0 0 0 
60.7898 74.5803 8.98399 0.324405 0.842167 -0.430715 0 0 0 
68.1246 74.6224 16.0757 0.423635 0.842168 -0.333597 0 0 0 
72.5863 74.5817 23.0195 0.494779 0.842165 -0.214362 0 0 0 
75.7656 74.6558 34.0345 0.533111 0.842167 -0.0809124 0 0 0 
76.0346 74.6007 42.6531 0.536099 0.842167 0.0579019 0 0 0 
73.2391 74.6814 53.3592 0.503537 0.84217 0.192875 0 0 0 
70.0513 74.6593 59.4656 0.437593 0.842169 0.315062 0 0 0 
63.847 74.5116 66.9746 0.342635 0.842167 0.41636 0 0 0 
53.8826 74.6706 73.0246 0.224957 0.842167 0.49005 0 0 0 
46.3306 74.6579 75.4126 0.092364 0.842167 0.531246 0 0 0 
36.7485 74.5824 76.1619 -0.0463533 0.842169 0.537217 0 0 0 
26.4788 74.6293 73.9307 -0.181998 0.842168 0.507572 0 0 0 
18.7435 74.611 70.0877 -0.305574 0.842168 0.444272 0 0 0 
10.7625 74.6299 62.94 -0.40889 0.842168 0.351514 0 0 0 
6.12345 74.5794 56.1248 -0.485093 0.842169 0.235448 0 0 0 
2.82874 74.68 46.0784 -0.529133 0.842169 0.103773 0 0 0 
1.98657 74.5497 37.5896 -0.538089 0.84217 -0.0347836 0 0 0 
3.55247 74.5266 28.2133 -0.51137 0.842169 -0.171034 0 0 0 
8.85414 74.6597 17.8349 -0.450744 0.842168 -0.295944 0 0 0 
13.9274 74.5489 11.8054 -0.360231 0.842167 -0.401233 0 0 0 
23.5951 74.6984 5.58853 -0.245832 0.842167 -0.479918 0 0 0 
31.5327 74.5883 2.80847 -0.115134 0.842167 -0.526782 0 0 0 
41.0265 74.7875 2.44433 0.0170237 0.918382 -0.395329 0 0 0 
50.4194 74.8059 4.21925 0.117409 0.918381 -0.377878 0 0 0 
59.8207 74.7553 8.6632 0.210008 0.918382 -0.335368 0 0 0 
66.7539 74.8133 14.986 0.288682 0.918382 -0.270624 0 0 0 
71.691 74.8039 22.2213 0.348216 0.918382 -0.187936 0 0 0 
75.102 74.8114 31.8973 0.384663 0.918382 -0.092787 0 0 0 
75.8576 74.7654 41.4808 0.395604 0.918382 0.00851346 0 0 0 
74.3346 74.7764 49.6562 0.380317 0.918381 0.109251 0 0 0 
70.3086 74.8145 58.4088 0.33981 0.918381 0.202744 0 0 0 
64.0504 74.7495 66.2372 0.276773 0.918381 0.282794 0 0 0 
53.7576 74.8425 72.6745 0.165081 0.918382 0.359614 0 0 0 
45.2036 74.806 75.2986 0.06778 0.918382 0.389846 0 0 0 
35.8306 74.8673 75.5151 -0.0340156 0.918382 0.39423 0 0 0 
27.9592 74.7531 74.2201 -0.133556 0.918382 0.372475 0 0 0 
19.2673 74.7549 70.1324 -0.224242 0.918381 0.326023 0 0 0 
11.9431 74.7486 63.9822 -0.300059 0.918381 0.257954 0 0 0 
6.63746 74.8077 56.1946 -0.35598 0.918382 0.172781 0 0 0 
3.22844 74.7587 47.2796 -0.388299 0.918382 0.0761524 0 0 0 
2.6467 74.8429 36.059 -0.394872 0.918381 -0.0255255 0 0 0 
4.01559 74.8511 28.7676 -0.375262 0.918382 -0.125511 0 0 0 
8.10795 74.8565 19.7361 -0.330773 0.918381 -0.217176 0 0 0 
14.4863 74.833 12.027 -0.26435 0.918382 -0.294439 0 0 0 
23.7112 74.7815 5.73727 -0.1804 0.918382 -0.352179 0 0 0 
31.9712 74.7247 2.94326 -0.084489 0.918382 -0.38657 0 0 0 
42.209 74.9371 2.95828 0.0103984 0.970352 -0.241471 0 0 0 
51.1536 74.8731 4.61814 0.0717136 0.970353 -0.23081 0 0 0 
58.7579 74.8754 8.33942 0.128274 0.970353 -0.204845 0 0 0 
66.6576 74.8834 15.1571 0.176329 0.970353 -0.165299 0 0 0 
71.1924 74.884 21.7422 0.212693 0.970353 -0.114793 0 0 0 
74.6538 74.931 31.6717 0.234954 0.970353 -0.0566749 0 0 0 
75.2238 74.9539 41.9469 0.240296 0.970353 0.0259534 0 0 0 
73.7503 74.8774 50.7707 0.225701 0.970353 0.0864527 0 0 0 
68.5495 74.9624 60.14 0.196144 0.970353 0.141221 0 0 0 
63.1922 74.9386 66.2705 0.153579 0.970353 0.186625 0 0 0 
54.5672 74.9242 71.9912 0.100833 0.970353 0.219656 0 0 0 
46 74.9076 74.8545 0.0414005 0.970353 0.238121 0 0 0 
35.8663 74.9005 75.3872 -0.0207769 0.970353 0.240798 0 0 0 
25.9339 74.9167 73.0047 -0.0815772 0.970353 0.227511 0 0 0 
18.2343 74.9089 68.9057 -0.136968 0.970353 0.199137 0 0 0 
10.8952 74.8988 62.151 -0.183278 0.970353 0.15756 0 0 0 
6.04662 74.9341 54.0528 -0.217435 0.970353 0.105536 0 0 0 
3.16844 74.8741 45.5376 -0.237174 0.970353 0.0465142 0 0 0 
2.71597 74.8915 37.3261 -0.241189 0.970353 -0.015591 0 0 0 
5.5371 74.9052 25.1007 -0.221774 0.970353 -0.0960835 0 0 0 
10.7256 74.9558 16.6904 -0.189886 0.970353 -0.149529 0 0 0 
17.1461 74.9654 10.4186 -0.145409 0.970353 -0.19306 0 0 0 
26.078 74.9636 5.39407 -0.0912895 0.970353 -0.223789 0 0 0 
33.2015 74.8843 3.10988 -0.0311177 0.970353 -0.239682 0 0 0 
43.051 74.9851 3.40943 0.010465 0.996691 -0.0806064 0 0 0 
52.1844 74.9721 5.48383 0.0307014 0.996691 -0.0752622 0 0 0 
60.9848 74.9765 10.4864 0.0489019 0.996691 -0.0649273 0 0 0 
67.6712 74.9834 17.2797 0.0638602 0.996691 -0.0502877 0 0 0 
72.5394 74.9881 25.9853 0.0745836 0.996691 -0.0323133 0 0 0 
74.8692 74.9754 34.4665 0.0803625 0.996691 -0.012197 0 0 0 
74.43 74.997 44.983 0.0797635 0.996691 0.015643 0 0 0 
71.1336 74.999 55.0472 0.0731244 0.996691 0.0354922 0 0 0 
67.1572 74.9774 61.7593 0.0616373 0.996691 0.0529882 0 0 0 
59.675 74.9914 68.4913 0.0460633 0.996691 0.066971 0 0 0 
50.4569 74.9794 73.2931 0.0274348 0.996691 0.076513 0 0 0 
42.1342 74.9762 75.0272 0.00698748 0.996691 0.0809824 0 0 0 
32.0703 74.9752 74.4796 -0.0139233 0.996691 0.0800821 0 0 0 
23.1401 74.98 71.3807 -0.0339108 0.996691 0.0738715 0 0 0 
15.2277 74.9845 65.9889 -0.0516499 0.996691 0.0627633 0 0 0 
8.39642 74.9836 57.7684 -0.0698028 0.996691 0.041647 0 0 0 
4.68333 74.978 49.6565 -0.0781236 0.996691 0.0224421 0 0 0 
3.24921 74.9862 41.1545 -0.0812639 0.996691 0.00174894 0 0 0 
4.01858 74.9951 31.984 -0.0790168 0.996691 -0.0190602 0 0 0 
7.9317 74.9689 20.8629 -0.0715301 0.996691 -0.0386055 0 0 0 
13.09 74.9695 14.0885 -0.0593008 0.996691 -0.0555912 0 0 0 
20.3232 74.9702 8.29581 -0.0431393 0.996691 -0.0688907 0 0 0 
29.6805 74.9807 4.38433 -0.0241176 0.996691 -0.0776221 0 0 0 
37.5256 74.981 3.1855 -0.00349699 0.996691 -0.0812077 0 0 0 
36.1518 7.34299 67.0485 0.124507 0.339205 -0.932437 0 0 0 
36.0228 7.38331 67.0459 0.124507 0.339205 -0.932437 0 0 0 
34.5492 7.46305 66.8767 0.131158 0.341382 -0.930729 0 0 0 
33.8085 3.60907 65.3266 0.178882 0.341556 -0.922681 0 0 0 
33.652 7.90357 66.8761 0.206529 0.337933 -0.91823 0 0 0 
32.5627 9.10217 67.0722 0.206529 0.337933 -0.91823 0 0 0 
32.0446 4.84442 65.3717 0.219532 0.341455 -0.913901 0 0 0 
31.7089 4.23797 65.0458 0.266279 0.341517 -0.901367 0 0 0 
31.329 8.12838 66.404 0.286924 0.337481 -0.896538 0 0 0 
31.0352 7.81743 66.1929 0.286924 0.337481 -0.896538 0 0 0 
30.0078 3.50663 64.2176 0.305891 0.341512 -0.888707 0 0 0 
28.8355 7.13776 65.1656 0.364503 0.341292 -0.866405 0 0 0 
29.2587 7.35215 65.4281 0.364503 0.341292 -0.866405 0 0 0 
28.2736 5.58341 64.3251 0.352002 0.3358 -0.873689 0 0 0 
27.8742 5.01648 63.9401 0.389446 0.341553 -0.855379 0 0 0 
26.8208 8.2763 64.7528 0.43965 0.341292 -0.830799 0 0 0 
27.0833 6.69423 64.2418 0.43965 0.341292 -0.830799 0 0 0 
26.7482 4.45111 63.1471 0.433484 0.338428 -0.835199 0 0 0 
24.6166 5.27406 62.2745 0.511356 0.341293 -0.788692 0 0 0 
25.0101 5.60327 62.6721 0.511356 0.341293 -0.788692 0 0 0 
24.183 3.54671 61.2473 0.510835 0.341033 -0.789141 0 0 0 
23.9748 4.91007 61.7017 0.510835 0.341033 -0.789141 0 0 0 
21.1003 8.63927 61.2589 0.57906 0.341292 -0.740412 0 0 0 
22.0739 6.95566 61.2443 0.57906 0.341292 -0.740412 0 0 0 
22.5573 3.83132 60.1822 0.57906 0.341292 -0.740412 0 0 0 
21.711 4.7503 59.9439 0.57906 0.341292 -0.740412 0 0 0 
20.035 8.99333 60.524 0.642705 0.339377 -0.686843 0 0 0 
20.3744 7.96497 60.3334 0.642705 0.339377 -0.686843 0 0 0 
20.0247 5.68837 58.8772 0.646678 0.341373 -0.682108 0 0 0 
19.8538 5.63912 58.6905 0.646678 0.341373 -0.682108 0 0 0 
18.5862 5.78713 57.4381 0.701256 0.338023 -0.627678 0 0 0 
18.1989 8.37745 58.4004 0.701256 0.338023 -0.627678 0 0 0 
19.3433 3.81792 57.2227 0.708907 0.341448 -0.617141 0 0 0 
17.8363 5.99769 56.6976 0.708907 0.341448 -0.617141 0 0 0 
18.0094 3.97905 55.7394 0.739715 0.341521 -0.579814 0 0 0 
16.2698 8.63447 56.2193 0.75414 0.33749 -0.563359 0 0 0 
16.2817 6.61423 55.0159 0.764643 0.341507 -0.546529 0 0 0 
15.3498 7.12497 53.8972 0.799811 0.341293 -0.493783 0 0 0 
15.693 7.70489 54.8539 0.799811 0.341293 -0.493783 0 0 0 
16.4377 4.17074 53.631 0.793573 0.335536 -0.507599 0 0 0 
16.2627 4.53059 53.5952 0.793573 0.335536 -0.507599 0 0 0 
13.7462 8.14182 51.7826 0.840322 0.341293 -0.421163 0 0 0 
13.8811 7.98908 51.9279 0.840322 0.341293 -0.421163 0 0 0 
14.967 3.51951 50.5075 0.837629 0.338167 -0.428977 0 0 0 
14.7525 5.19029 51.4059 0.837629 0.338167 -0.428977 0 0 0 
12.5564 8.89875 49.8076 0.874256 0.341292 -0.345248 0 0 0 
13.3194 7.15601 50.0168 0.874256 0.341292 -0.345248 0 0 0 
13.7679 3.90402 47.9462 0.873929 0.340774 -0.346585 0 0 0 
12.8787 6.96416 48.7128 0.873929 0.340774 -0.346585 0 0 0 
12.0626 7.95079 47.3762 0.901348 0.341292 -0.26663 0 0 0 
12.6901 6.76904 47.9846 0.901348 0.341292 -0.26663 0 0 0 
12.5116 6.32033 46.8068 0.901348 0.341292 -0.26663 0 0 0 
11.9798 7.33601 46.3091 0.901348 0.341292 -0.26663 0 0 0 
11.7614 7.48804 45.7181 0.922001 0.339557 -0.18605 0 0 0 
11.846 6.62644 44.5649 0.922001 0.339557 -0.18605 0 0 0 
12.4976 4.90604 44.6486 0.922423 0.341365 -0.180571 0 0 0 
11.8281 5.91167 43.0387 0.930425 0.341562 -0.132835 0 0 0 
11.7299 6.15227 42.9534 0.93535 0.338122 -0.103892 0 0 0 
11.7705 5.74839 42.0042 0.93535 0.338122 -0.103892 0 0 0 
12.1869 4.6622 42.2165 0.935434 0.341441 -0.0915546 0 0 0 
12.1887 4.21831 40.2072 0.938876 0.341525 -0.0432751 0 0 0 
11.2947 6.7012 40.3037 0.941093 0.337506 -0.020824 0 0 0 
10.9298 7.63824 38.9968 0.941093 0.337506 -0.020824 0 0 0 
10.9787 7.49322 38.6927 0.93988 0.341501 -0.00170489 0 0 0 
10.6155 8.87112 36.4152 0.937888 0.341292 0.0623406 0 0 0 
11.958 4.87842 38.0771 0.937888 0.341292 0.0623406 0 0 0 
12.1096 4.59865 37.0953 0.940959 0.335272 0.0467934 0 0 0 
12.47 3.62987 36.9035 0.935722 0.341546 0.0881559 0 0 0 
11.7612 5.85105 35.9237 0.928708 0.341292 0.144988 0 0 0 
11.354 6.9343 35.9824 0.928708 0.341292 0.144988 0 0 0 
12.3164 4.55522 35.4025 0.931244 0.337905 0.136401 0 0 0 
11.0535 8.80896 33.4879 0.922997 0.341574 0.177209 0 0 0 
11.8939 7.73522 31.7147 0.91226 0.341292 0.226499 0 0 0 
11.9394 6.9527 32.7105 0.91226 0.341292 0.226499 0 0 0 
12.1929 6.85101 31.8398 0.913024 0.340514 0.224581 0 0 0 
12.4147 6.64438 31.2549 0.901821 0.341587 0.264644 0 0 0 
13.0174 4.98617 31.3495 0.888672 0.341293 0.306238 0 0 0 
12.2964 7.13772 31.0441 0.888672 0.341293 0.306238 0 0 0 
13.677 3.5341 31.0538 0.888672 0.341293 0.306238 0 0 0 
14.2275 3.925 29.054 0.872392 0.341584 0.349646 0 0 0 
13.0897 8.36814 27.6638 0.85864 0.339746 0.38381 0 0 0 
13.6635 6.81256 27.7571 0.85864 0.339746 0.38381 0 0 0 
14.5062 4.66063 27.786 0.856149 0.341356 0.387924 0 0 0 
15.5456 3.50177 26.5916 0.834977 0.341565 0.431447 0 0 0 
14.7488 6.12967 26.0802 0.821836 0.338229 0.458461 0 0 0 
13.9232 7.92472 26.2358 0.821836 0.338229 0.458461 0 0 0 
16.2554 3.86253 25.0902 0.815116 0.341434 0.467984 0 0 0 
15.565 6.23112 24.5658 0.789915 0.34153 0.509305 0 0 0 
15.6127 7.67608 23.5514 0.778309 0.337531 0.529442 0 0 0 
16.0844 8.01787 22.6401 0.778309 0.337531 0.529442 0 0 0 
17.2314 5.05702 22.8717 0.766623 0.341496 0.543755 0 0 0 
17.619 7.48137 20.9993 0.727421 0.341292 0.595297 0 0 0 
17.5028 6.81039 21.526 0.727421 0.341292 0.595297 0 0 0 
17.7635 5.62277 21.8866 0.739446 0.335007 0.583944 0 0 0 
18.9828 3.94035 21.3547 0.711115 0.341542 0.614544 0 0 0 
19.2986 5.32192 20.2974 0.671962 0.341292 0.657257 0 0 0 
19.3364 6.58952 19.6005 0.671962 0.341292 0.657257 0 0 0 
19.8057 4.76866 20.0555 0.679553 0.337642 0.651311 0 0 0 
20.1274 7.80659 18.2127 0.611244 0.341293 0.714073 0 0 0 
20.3206 7.24291 18.3166 0.611244 0.341293 0.714073 0 0 0 
21.6538 3.69684 18.8665 0.613559 0.340254 0.712582 0 0 0 
21.038 3.86677 19.3156 0.613559 0.340254 0.712582 0 0 0 
22.6726 6.80872 16.6165 0.545741 0.341293 0.765301 0 0 0 
22.7322 6.94084 16.5151 0.545741 0.341293 0.765301 0 0 0 
23.5082 5.30817 16.6898 0.545742 0.341292 0.765301 0 0 0 
24.0696 4.88088 16.48 0.545742 0.341292 0.765301 0 0 0 
24.2744 6.02807 15.8388 0.476217 0.339942 0.810961 0 0 0 
24.7573 7.80428 14.8106 0.476217 0.339942 0.810961 0 0 0 
26.2811 4.66896 15.2377 0.472427 0.341348 0.812585 0 0 0 
25.132 5.30154 15.64 0.472427 0.341348 0.812585 0 0 0 
26.5387 7.72031 13.8673 0.402927 0.338344 0.850396 0 0 0 
27.2654 5.05799 14.5823 0.402927 0.338344 0.850396 0 0 0 
28.1248 7.81922 13.0813 0.392565 0.341427 0.854003 0 0 0 
27.6689 5.56783 14.1909 0.392565 0.341427 0.854003 0 0 0 
28.751 8.28868 12.6608 0.32629 0.337564 0.882941 0 0 0 
29.8697 7.97973 12.3655 0.32629 0.337564 0.882941 0 0 0 
30.23 4.55189 13.5513 0.309115 0.341491 0.887599 0 0 0 
31.2463 8.0087 11.9256 0.246625 0.341292 0.907026 0 0 0 
30.7405 9.10582 11.6503 0.246625 0.341292 0.907026 0 0 0 
32.0938 4.62813 12.9528 0.26369 0.334742 0.904663 0 0 0 
32.867 7.22856 11.7757 0.222836 0.341538 0.913069 0 0 0 
35.0421 8.39883 10.9485 0.165497 0.341293 0.925273 0 0 0 
34.4216 7.46826 11.4027 0.165497 0.341293 0.925273 0 0 0 
35.1656 7.79929 11.1437 0.175818 0.33738 0.924804 0 0 0 
34.1986 4.54199 12.5159 0.175818 0.33738 0.924804 0 0 0 
36.8977 8.77902 10.6172 0.0830731 0.341293 0.936279 0 0 0 
37.0009 8.53447 10.6972 0.0830731 0.341293 0.936279 0 0 0 
36.5731 4.47804 12.2117 0.0865126 0.339994 0.93644 0 0 0 
36.7087 3.69918 12.482 0.0865126 0.339994 0.93644 0 0 0 
38.1561 5.80323 11.6127 -0 0.341292 0.939957 0 0 0 
39.2154 6.56373 11.3365 -0 0.341292 0.939957 0 0 0 
39.9588 6.02127 11.5335 -0 0.341292 0.939957 0 0 0 
40.2566 7.88812 10.8556 -0 0.341292 0.939957 0 0 0 
40.4755 7.49559 11.0054 -0.0831098 0.340147 0.936693 0 0 0 
41.4535 8.42944 10.7531 -0.0831098 0.340147 0.936693 0 0 0 
42.3082 3.83733 12.5025 -0.0864677 0.341339 0.935955 0 0 0 
42.8376 4.95693 12.1489 -0.134522 0.34157 0.930179 0 0 0 
43.2504 3.98764 12.5662 -0.165677 0.338467 0.926278 0 0 0 
43.4613 7.04956 11.4851 -0.165677 0.338467 0.926278 0 0 0 
45.0739 8.01581 11.4214 -0.175546 0.34142 0.923372 0 0 0 
45.4196 4.17092 12.9296 -0.222836 0.341538 0.913069 0 0 0 
47.3651 8.90275 11.6876 -0.246974 0.337605 0.90831 0 0 0 
45.9139 6.56999 12.1601 -0.246974 0.337605 0.90831 0 0 0 
47.4252 7.12321 12.3701 -0.263012 0.341485 0.902337 0 0 0 
49.1003 7.88689 12.675 -0.325823 0.341292 0.881679 0 0 0 
48.6791 6.41442 13.0893 -0.325823 0.341292 0.881679 0 0 0 
48.6863 4.9044 13.6623 -0.309943 0.334477 0.889978 0 0 0 
49.6168 6.38408 13.4399 -0.348067 0.341534 0.873043 0 0 0 
50.4346 6.88539 13.606 -0.402471 0.341292 0.849433 0 0 0 
50.8291 8.71932 13.056 -0.402471 0.341292 0.849433 0 0 0 
50.8972 3.9997 14.9685 -0.393214 0.337117 0.855415 0 0 0 
51.5061 5.11749 14.8085 -0.429932 0.341567 0.835757 0 0 0 
52.2586 5.39825 15.1045 -0.475969 0.341292 0.810539 0 0 0 
52.1689 4.94571 15.2425 -0.475969 0.341292 0.810539 0 0 0 
52.5431 4.01901 15.8487 -0.472721 0.339734 0.81309 0 0 0 
53.8245 4.87795 16.2379 -0.507863 0.341585 0.790819 0 0 0 
55.8238 9.10999 15.7695 -0.545741 0.341292 0.765301 0 0 0 
55.9749 5.63569 17.4267 -0.545742 0.341293 0.765301 0 0 0 
55.9832 5.90805 17.3111 -0.545742 0.341293 0.765301 0 0 0 
56.6668 7.31255 17.2042 -0.611463 0.34036 0.71433 0 0 0 
